NCOLS 180
NROWS 58
XLLCENTER 500
YLLCENTER 35500
CELLSIZE 1000.
NODATA_VALUE 1.e30
1e+30 1e+30 1e+30 1e+30 1e+30 1e+30 1e+30 1e+30 1e+30 1e+30 1e+30 1e+30 1e+30 1e+30 1e+30 1e+30 1e+30 1e+30 1e+30 1e+30 1e+30 1e+30 1e+30 1e+30 1e+30 1e+30 1e+30 1e+30 1e+30 1e+30 101.25477 101.22532 101.17363 101.10078 101.01026 100.90706 100.78871 100.65514 100.508 100.3461 100.16851 99.975185 99.766879 99.544783 99.310211 99.062468 98.8003 98.522844 98.229856 97.921662 97.598929 97.262095 96.910457 96.542629 96.157093 95.752406 95.327148 94.879767 94.40845 93.911223 93.386516 92.834301 92.256787 91.656097 91.032922 90.386032 89.712264 89.00753 88.270172 87.505125 86.712381 85.884856 85.017451 84.137101 83.249203 82.332029 81.341693 80.382066 79.419262 78.160634 77.109295 76.242448 75.644969 1e+30 1e+30 1e+30 1e+30 1e+30 1e+30 1e+30 1e+30 1e+30 1e+30 1e+30 1e+30 1e+30 1e+30 1e+30 1e+30 1e+30 1e+30 1e+30 1e+30 1e+30 1e+30 1e+30 1e+30 1e+30 1e+30 1e+30 1e+30 1e+30 1e+30 1e+30 1e+30 1e+30 1e+30 1e+30 1e+30 1e+30 1e+30 1e+30 1e+30 1e+30 1e+30 1e+30 1e+30 1e+30 1e+30 1e+30 1e+30 1e+30 1e+30 1e+30 1e+30 1e+30 1e+30 1e+30 1e+30 1e+30 1e+30 1e+30 1e+30 1e+30 1e+30 1e+30 1e+30 1e+30 1e+30 1e+30 1e+30 1e+30 1e+30 1e+30 1e+30 1e+30 1e+30 1e+30 1e+30 1e+30 1e+30 1e+30 1e+30 1e+30 1e+30 1e+30 1e+30 1e+30 1e+30 1e+30 1e+30 1e+30 1e+30 1e+30 1e+30 1e+30 1e+30 1e+30 1e+30 1e+30
1e+30 1e+30 1e+30 1e+30 1e+30 1e+30 1e+30 1e+30 1e+30 1e+30 1e+30 1e+30 1e+30 1e+30 1e+30 1e+30 1e+30 1e+30 1e+30 1e+30 1e+30 1e+30 1e+30 1e+30 1e+30 1e+30 1e+30 1e+30 101.28727 101.26602 101.23422 101.18695 101.12188 101.03914 100.94028 100.82713 100.69966 100.55797 100.40247 100.23287 100.04883 99.850357 99.637693 99.41137 99.171818 98.918766 98.6516 98.369772 98.07299 97.761213 97.4345 97.092715 96.73522 96.360967 95.968715 95.557157 95.124942 94.67065 94.192795 93.689954 93.161086 92.605946 92.025149 91.419337 90.788481 90.131569 89.446727 88.731924 87.986275 87.210704 86.404964 85.56733 84.698401 83.806346 82.893222 81.952154 80.976166 79.987796 78.973247 77.888326 76.862101 75.912079 74.988524 73.808344 72.845303 72.04537 71.405546 70.97997 1e+30 1e+30 1e+30 1e+30 1e+30 1e+30 1e+30 1e+30 1e+30 1e+30 1e+30 1e+30 1e+30 1e+30 1e+30 1e+30 1e+30 1e+30 1e+30 1e+30 1e+30 1e+30 1e+30 1e+30 1e+30 1e+30 1e+30 1e+30 1e+30 1e+30 1e+30 1e+30 1e+30 1e+30 1e+30 1e+30 1e+30 1e+30 1e+30 1e+30 1e+30 1e+30 1e+30 1e+30 1e+30 1e+30 1e+30 1e+30 1e+30 1e+30 1e+30 1e+30 1e+30 1e+30 1e+30 1e+30 1e+30 1e+30 1e+30 1e+30 1e+30 1e+30 1e+30 1e+30 1e+30 1e+30 1e+30 1e+30 1e+30 1e+30 1e+30 1e+30 1e+30 1e+30 1e+30 1e+30 1e+30 1e+30 1e+30 1e+30 1e+30 1e+30 1e+30 1e+30 1e+30 1e+30 1e+30 1e+30 1e+30 1e+30 1e+30 1e+30
1e+30 1e+30 1e+30 1e+30 1e+30 1e+30 1e+30 1e+30 1e+30 1e+30 1e+30 1e+30 1e+30 1e+30 1e+30 1e+30 1e+30 1e+30 1e+30 1e+30 1e+30 1e+30 1e+30 1e+30 1e+30 1e+30 1e+30 101.26986 101.25853 101.22657 101.17915 101.11638 101.03781 100.94362 100.83458 100.71154 100.57482 100.4246 100.26104 100.08407 99.893578 99.689458 99.471764 99.240693 98.996332 98.738481 98.46675 98.180722 97.880062 97.564511 97.233814 96.887568 96.525103 96.145496 95.747648 95.330366 94.892395 94.432441 93.949213 93.441523 92.908444 92.349459 91.764412 91.15317 90.515283 89.849828 89.155517 88.431069 87.67572 86.88936 86.071805 85.222886 84.343696 83.437333 82.505258 81.546582 80.561763 79.557857 78.53487 77.494073 76.475864 75.492646 74.524223 73.525658 72.618975 71.823418 71.13057 70.494848 69.712965 69.115734 68.642373 68.261509 67.953068 67.702292 67.49757 67.329689 67.191941 67.081698 67.006455 1e+30 1e+30 1e+30 1e+30 1e+30 1e+30 1e+30 1e+30 1e+30 1e+30 1e+30 1e+30 1e+30 1e+30 1e+30 1e+30 1e+30 1e+30 1e+30 1e+30 1e+30 1e+30 1e+30 1e+30 1e+30 1e+30 1e+30 1e+30 1e+30 1e+30 1e+30 1e+30 1e+30 1e+30 1e+30 1e+30 1e+30 1e+30 1e+30 1e+30 1e+30 1e+30 1e+30 1e+30 1e+30 1e+30 1e+30 1e+30 1e+30 1e+30 1e+30 1e+30 1e+30 1e+30 1e+30 1e+30 1e+30 1e+30 1e+30 1e+30 1e+30 1e+30 1e+30 1e+30 1e+30 1e+30 1e+30 1e+30 1e+30 1e+30 1e+30 1e+30 1e+30 1e+30 1e+30 1e+30 1e+30 1e+30 1e+30 1e+30 1e+30
1e+30 1e+30 1e+30 1e+30 1e+30 1e+30 1e+30 1e+30 1e+30 1e+30 1e+30 1e+30 1e+30 1e+30 1e+30 1e+30 1e+30 1e+30 1e+30 1e+30 1e+30 1e+30 1e+30 1e+30 1e+30 101.25666 101.24454 101.23119 101.20041 101.15258 101.08942 101.0116 100.91935 100.81295 100.69289 100.55963 100.41348 100.25458 100.08303 99.898802 99.701744 99.491715 99.268703 99.032701 98.783627 98.52126 98.245264 97.955253 97.650841 97.331639 96.997216 96.647025 96.280351 95.896308 95.493869 95.071913 94.629258 94.164693 93.677023 93.165132 92.628066 92.065077 91.475583 90.859009 90.214635 89.541521 88.838582 88.104778 87.339339 86.541841 85.712082 84.850192 83.957041 83.0343 82.083516 81.106102 80.104744 79.084665 78.051356 77.013914 75.991255 74.994926 74.026158 73.087255 72.218532 71.436591 70.736785 70.093486 69.465787 68.930625 68.489249 68.128793 67.835296 67.596232 67.400778 67.239624 67.10451 66.986774 66.871299 66.7091 66.587574 66.487597 66.400569 66.324435 66.267356 1e+30 1e+30 1e+30 1e+30 1e+30 1e+30 1e+30 1e+30 1e+30 1e+30 1e+30 1e+30 1e+30 1e+30 1e+30 1e+30 1e+30 1e+30 1e+30 1e+30 1e+30 1e+30 1e+30 1e+30 1e+30 1e+30 1e+30 1e+30 1e+30 1e+30 1e+30 1e+30 1e+30 1e+30 1e+30 1e+30 1e+30 1e+30 1e+30 1e+30 1e+30 1e+30 1e+30 1e+30 1e+30 1e+30 1e+30 1e+30 1e+30 1e+30 1e+30 1e+30 1e+30 1e+30 1e+30 1e+30 1e+30 1e+30 1e+30 1e+30 1e+30 1e+30 1e+30 1e+30 1e+30 1e+30 1e+30 1e+30 1e+30 1e+30 1e+30 1e+30 1e+30 1e+30 1e+30
1e+30 1e+30 1e+30 1e+30 1e+30 1e+30 1e+30 1e+30 1e+30 1e+30 1e+30 1e+30 1e+30 1e+30 1e+30 1e+30 1e+30 1e+30 1e+30 1e+30 1e+30 1e+30 1e+30 1e+30 101.22143 101.21877 101.19578 101.15996 101.10935 101.04391 100.96436 100.87127 100.76503 100.64596 100.51439 100.37063 100.21487 100.04721 99.867692 99.67615 99.472427 99.256411 99.027992 98.78704 98.533369 98.26671 97.986717 97.692986 97.38508 97.06252 96.724769 96.371192 96.00103 95.613397 95.207295 94.781639 94.335287 93.867066 93.375809 92.860395 92.31979 91.753063 91.159356 90.537809 89.887495 89.207387 88.496409 87.753533 86.977907 86.168922 85.326238 84.449894 83.540468 82.599138 81.627546 80.628005 79.604199 78.561805 77.5085 76.455101 75.416217 74.405413 73.433948 72.514694 71.66793 70.90486 70.224147 69.614353 69.064379 68.590635 68.194561 67.86876 67.602915 67.386485 67.209663 67.063521 66.939703 66.829565 66.722753 66.608283 66.505907 66.414524 66.329531 66.245221 66.150113 66.002703 65.883094 65.78166 65.707253 1e+30 1e+30 1e+30 1e+30 1e+30 1e+30 1e+30 1e+30 1e+30 1e+30 1e+30 1e+30 1e+30 1e+30 1e+30 1e+30 1e+30 1e+30 1e+30 1e+30 1e+30 1e+30 1e+30 1e+30 1e+30 1e+30 1e+30 1e+30 1e+30 1e+30 1e+30 1e+30 1e+30 1e+30 1e+30 1e+30 1e+30 1e+30 1e+30 1e+30 1e+30 1e+30 1e+30 1e+30 1e+30 1e+30 1e+30 1e+30 1e+30 1e+30 1e+30 1e+30 1e+30 1e+30 1e+30 1e+30 1e+30 1e+30 1e+30 1e+30 1e+30 1e+30 1e+30 1e+30 1e+30 1e+30 1e+30 1e+30 1e+30 1e+30 1e+30
1e+30 1e+30 1e+30 1e+30 1e+30 1e+30 1e+30 1e+30 1e+30 1e+30 1e+30 1e+30 1e+30 1e+30 1e+30 1e+30 1e+30 1e+30 1e+30 1e+30 1e+30 1e+30 1e+30 101.17488 101.17408 101.15124 101.10985 101.0535 100.98314 100.89936 100.80284 100.6941 100.57354 100.44145 100.29809 100.14363 99.978156 99.801707 99.614085 99.415166 99.204799 98.982813 98.749017 98.503196 98.245088 97.974372 97.690664 97.393526 97.08247 96.756951 96.416359 96.059995 95.687062 95.296656 94.88778 94.459359 94.010257 93.539305 93.04532 92.527137 91.983626 91.413697 90.816288 90.190325 89.534695 88.848238 88.129777 87.378181 86.592437 85.771723 84.915463 84.02343 83.095864 82.133586 81.138125 80.112017 79.059332 77.98624 76.901496 75.817044 74.748058 73.711373 72.724407 71.804881 70.969439 70.227199 69.577579 69.012898 68.52485 68.111642 67.768697 67.488166 67.260707 67.076847 66.927655 66.804922 66.701057 66.608869 66.521681 66.435209 66.353083 66.274886 66.197614 66.116571 66.024846 65.91453 65.804548 65.694249 65.572466 65.391912 65.250959 65.153284 1e+30 1e+30 1e+30 1e+30 1e+30 1e+30 1e+30 1e+30 1e+30 1e+30 1e+30 1e+30 1e+30 1e+30 1e+30 1e+30 1e+30 1e+30 1e+30 1e+30 1e+30 1e+30 1e+30 1e+30 1e+30 1e+30 1e+30 1e+30 1e+30 1e+30 1e+30 1e+30 1e+30 1e+30 1e+30 1e+30 1e+30 1e+30 1e+30 1e+30 1e+30 1e+30 1e+30 1e+30 1e+30 1e+30 1e+30 1e+30 1e+30 1e+30 1e+30 1e+30 1e+30 1e+30 1e+30 1e+30 1e+30 1e+30 1e+30 1e+30 1e+30 1e+30 1e+30 1e+30 1e+30 1e+30 1e+30 1e+30
1e+30 1e+30 1e+30 1e+30 1e+30 1e+30 1e+30 1e+30 1e+30 1e+30 1e+30 1e+30 1e+30 1e+30 1e+30 1e+30 1e+30 1e+30 1e+30 1e+30 1e+30 1e+30 101.13024 101.12568 101.09878 101.05227 100.98888 100.91108 100.82032 100.71757 100.60354 100.47875 100.34357 100.19824 100.0429 99.877641 99.70237 99.516928 99.32118 99.114945 98.898011 98.670143 98.431086 98.180552 97.918218 97.643712 97.356606 97.056423 96.742625 96.414617 96.071732 95.713221 95.338248 94.945884 94.535116 94.104855 93.653949 93.181205 92.685398 92.165295 91.619663 91.04727 90.446879 89.817233 89.157037 88.464963 87.739669 86.979842 86.184242 85.351765 84.481507 83.572849 82.625578 81.64004 80.617352 79.559763 78.471179 77.357814 76.228937 75.09764 73.981279 72.901089 71.880978 70.944927 70.11232 69.392239 68.782149 68.271618 67.848001 67.500524 67.219029 66.99346 66.814104 66.671912 66.558672 66.467014 66.390341 66.322806 66.259552 66.197481 66.136036 66.074027 66.009157 65.938263 65.857794 65.765628 65.665897 65.55785 65.435852 65.29165 65.147047 64.995 64.785697 64.650981 1e+30 1e+30 1e+30 1e+30 1e+30 1e+30 1e+30 1e+30 1e+30 1e+30 1e+30 1e+30 1e+30 1e+30 1e+30 1e+30 1e+30 1e+30 1e+30 1e+30 1e+30 1e+30 1e+30 1e+30 1e+30 1e+30 1e+30 1e+30 1e+30 1e+30 1e+30 1e+30 1e+30 1e+30 1e+30 1e+30 1e+30 1e+30 1e+30 1e+30 1e+30 1e+30 1e+30 1e+30 1e+30 1e+30 1e+30 1e+30 1e+30 1e+30 1e+30 1e+30 1e+30 1e+30 1e+30 1e+30 1e+30 1e+30 1e+30 1e+30 1e+30 1e+30 1e+30 1e+30 1e+30 1e+30
1e+30 1e+30 1e+30 1e+30 1e+30 1e+30 1e+30 1e+30 1e+30 1e+30 1e+30 1e+30 1e+30 1e+30 1e+30 1e+30 1e+30 1e+30 1e+30 1e+30 1e+30 101.09846 101.0848 101.04882 100.99311 100.92016 100.83233 100.73162 100.61951 100.49706 100.36499 100.22379 100.07375 99.915026 99.747621 99.571374 99.386149 99.191756 98.98797 98.774534 98.55117 98.317577 98.073438 97.818408 97.552108 97.274119 96.983974 96.681152 96.365076 96.035104 95.690523 95.330542 94.954288 94.5608 94.149034 93.717875 93.266136 92.79258 92.295925 91.774854 91.228028 90.654078 90.051609 89.419187 88.755332 88.058526 87.327219 86.559858 85.754919 84.910948 84.026619 83.100803 82.132681 81.121902 80.068823 78.974888 77.843198 76.679303 75.492259 74.295927 73.110309 71.962345 70.885118 69.91358 69.075498 68.381078 67.821957 67.379183 67.031636 66.760771 66.551352 66.390889 66.269 66.176922 66.107174 66.05331 66.009769 65.97182 65.935653 65.898592 65.859055 65.815546 65.766245 65.709046 65.641935 65.56378 65.475022 65.374815 65.26079 65.131105 64.989832 64.833073 64.650159 64.45542 64.183958 63.976677 63.836842 1e+30 1e+30 1e+30 1e+30 1e+30 1e+30 1e+30 1e+30 1e+30 1e+30 1e+30 1e+30 1e+30 1e+30 1e+30 1e+30 1e+30 1e+30 1e+30 1e+30 1e+30 1e+30 1e+30 1e+30 1e+30 1e+30 1e+30 1e+30 1e+30 1e+30 1e+30 1e+30 1e+30 1e+30 1e+30 1e+30 1e+30 1e+30 1e+30 1e+30 1e+30 1e+30 1e+30 1e+30 1e+30 1e+30 1e+30 1e+30 1e+30 1e+30 1e+30 1e+30 1e+30 1e+30 1e+30 1e+30 1e+30 1e+30 1e+30 1e+30 1e+30 1e+30 1e+30
1e+30 1e+30 1e+30 1e+30 1e+30 1e+30 1e+30 1e+30 1e+30 1e+30 1e+30 1e+30 1e+30 1e+30 1e+30 1e+30 1e+30 1e+30 1e+30 1e+30 101.09039 101.06212 101.01169 100.94171 100.85469 100.75296 100.63864 100.51354 100.37906 100.23618 100.08558 99.927674 99.762606 99.590296 99.410611 99.223355 99.02827 98.825056 98.613391 98.392934 98.163335 97.924232 97.675249 97.41599 97.14603 96.864909 96.572121 96.26711 95.949262 95.617897 95.272262 94.911529 94.534785 94.141035 93.729199 93.298119 92.846564 92.37324 91.876791 91.355815 90.808857 90.234417 89.630944 88.996831 88.330411 87.629954 86.893677 86.119749 85.306313 84.451509 83.553505 82.61055 81.621058 80.583733 79.497787 78.363298 77.181775 75.957071 74.696765 73.41423 72.131418 70.881926 69.712457 68.67811 67.825358 67.166292 66.678477 66.325848 66.074007 65.895887 65.771736 65.687307 65.632064 65.5979 65.578331 65.568013 65.562485 65.558047 65.551742 65.541354 65.525279 65.502136 65.470532 65.429054 65.376441 65.31185 65.234897 65.144863 65.040615 64.921329 64.787224 64.636324 64.465396 64.275313 64.05842 63.847984 63.635852 63.356584 63.178371 1e+30 1e+30 1e+30 1e+30 1e+30 1e+30 1e+30 1e+30 1e+30 1e+30 1e+30 1e+30 1e+30 1e+30 1e+30 1e+30 1e+30 1e+30 1e+30 1e+30 1e+30 1e+30 1e+30 1e+30 1e+30 1e+30 1e+30 1e+30 1e+30 1e+30 1e+30 1e+30 1e+30 1e+30 1e+30 1e+30 1e+30 1e+30 1e+30 1e+30 1e+30 1e+30 1e+30 1e+30 1e+30 1e+30 1e+30 1e+30 1e+30 1e+30 1e+30 1e+30 1e+30 1e+30 1e+30 1e+30 1e+30 1e+30 1e+30 1e+30 1e+30
1e+30 1e+30 1e+30 1e+30 1e+30 1e+30 1e+30 1e+30 1e+30 1e+30 1e+30 1e+30 1e+30 1e+30 1e+30 1e+30 1e+30 1e+30 1e+30 101.11744 101.06865 100.99797 100.90812 100.80164 100.68097 100.54833 100.40574 100.25486 100.09699 99.933021 99.763491 99.588537 99.408147 99.222161 99.030295 98.83219 98.627443 98.41563 98.196323 97.969094 97.733518 97.489174 97.235634 96.972458 96.699184 96.415316 96.12032 95.813608 95.494534 95.162387 94.816381 94.455652 94.07925 93.686141 93.275202 92.84523 92.394937 91.922961 91.42787 90.908162 90.36227 89.788561 89.185331 88.550802 87.883112 87.180315 86.440374 85.661161 84.840457 83.975951 83.065249 82.105891 81.095378 80.031247 78.911201 77.733364 76.49675 75.202121 73.853546 72.461177 71.045986 69.646999 68.329589 67.186369 66.308303 65.70901 65.330542 65.104183 64.976539 64.912054 64.888316 64.891153 64.911205 64.941865 64.97815 65.016103 65.0525 65.084705 65.110618 65.128622 65.137481 65.136165 65.123723 65.099264 65.062011 65.011381 64.946947 64.868202 64.774527 64.665383 64.540367 64.398488 64.2386 64.060725 63.865088 63.659584 63.440364 63.193835 62.938682 62.593408 62.331283 62.15638 1e+30 1e+30 1e+30 1e+30 1e+30 1e+30 1e+30 1e+30 1e+30 1e+30 1e+30 1e+30 1e+30 1e+30 1e+30 1e+30 1e+30 1e+30 1e+30 1e+30 1e+30 1e+30 1e+30 1e+30 1e+30 1e+30 1e+30 1e+30 1e+30 1e+30 1e+30 1e+30 1e+30 1e+30 1e+30 1e+30 1e+30 1e+30 1e+30 1e+30 1e+30 1e+30 1e+30 1e+30 1e+30 1e+30 1e+30 1e+30 1e+30 1e+30 1e+30 1e+30 1e+30 1e+30 1e+30 1e+30 1e+30 1e+30
1e+30 1e+30 1e+30 1e+30 1e+30 1e+30 1e+30 1e+30 1e+30 1e+30 1e+30 1e+30 1e+30 1e+30 1e+30 1e+30 1e+30 1e+30 101.19244 101.11622 101.01883 100.90299 100.77117 100.62578 100.46921 100.30366 100.13112 99.953176 99.771013 99.585257 99.396241 99.204008 99.008342 98.80886 98.605066 98.396408 98.182318 97.962231 97.735605 97.50192 97.260684 97.011417 96.753649 96.486907 96.210697 95.924502 95.627762 95.319868 95.000149 94.667869 94.322213 93.962284 93.587098 93.195579 92.786561 92.358784 91.910901 91.441477 90.948992 90.431846 89.888356 89.316755 88.715188 88.081706 87.414258 86.710676 85.968668 85.185802 84.359484 83.486942 82.565195 81.591022 80.560934 79.471147 78.317579 77.095907 75.80176 74.431224 72.982052 71.456456 69.867291 68.251026 66.691455 65.348534 64.43387 63.955575 63.758159 63.713883 63.747901 63.820941 63.912935 64.013293 64.115942 64.216959 64.313493 64.403296 64.484536 64.555718 64.615656 64.663444 64.698392 64.719951 64.727642 64.721035 64.699766 64.66355 64.612152 64.545315 64.462733 64.364108 64.249133 64.117366 63.968435 63.80247 63.620137 63.423321 63.210475 62.9779 62.726988 62.448024 62.182035 61.91962 61.58222 61.368231 1e+30 1e+30 1e+30 1e+30 1e+30 1e+30 1e+30 1e+30 1e+30 1e+30 1e+30 1e+30 1e+30 1e+30 1e+30 1e+30 1e+30 1e+30 1e+30 1e+30 1e+30 1e+30 1e+30 1e+30 1e+30 1e+30 1e+30 1e+30 1e+30 1e+30 1e+30 1e+30 1e+30 1e+30 1e+30 1e+30 1e+30 1e+30 1e+30 1e+30 1e+30 1e+30 1e+30 1e+30 1e+30 1e+30 1e+30 1e+30 1e+30 1e+30 1e+30 1e+30 1e+30 1e+30 1e+30 1e+30
1e+30 1e+30 1e+30 1e+30 1e+30 1e+30 1e+30 1e+30 1e+30 1e+30 1e+30 1e+30 1e+30 1e+30 1e+30 1e+30 1e+30 101.33309 101.21866 101.08619 100.93746 100.774 100.59778 100.41111 100.21641 100.01599 99.81191 99.605584 99.398044 99.189877 98.981205 98.771785 98.561113 98.348514 98.133231 97.914481 97.691502 97.463576 97.23004 96.990287 96.743758 96.48993 96.228298 95.958367 95.679628 95.391547 95.093552 94.785021 94.465267 94.133534 93.788985 93.430694 93.057643 92.668717 92.2627 91.838277 91.394033 90.928456 90.439935 89.926767 89.387152 88.819191 88.220881 87.590107 86.924631 86.222073 85.479894 84.695365 83.865538 82.987189 82.056769 81.070315 80.02335 78.910746 77.726544 76.463738 75.114004 73.667459 72.112646 70.437519 68.633783 66.711816 64.74599 62.99063 62.035801 61.84012 61.956235 62.172384 62.409917 62.642514 62.862316 63.067408 63.257464 63.432385 63.591968 63.735902 63.863842 63.975482 64.070595 64.149051 64.210801 64.255843 64.284197 64.295889 64.290951 64.269426 64.231351 64.176735 64.105547 64.017731 63.913211 63.791887 63.653737 63.49896 63.327982 63.141318 62.938442 62.718326 62.481234 62.227497 61.966983 61.695316 61.396216 61.091989 60.687668 60.38295 60.181752 1e+30 1e+30 1e+30 1e+30 1e+30 1e+30 1e+30 1e+30 1e+30 1e+30 1e+30 1e+30 1e+30 1e+30 1e+30 1e+30 1e+30 1e+30 1e+30 1e+30 1e+30 1e+30 1e+30 1e+30 1e+30 1e+30 1e+30 1e+30 1e+30 1e+30 1e+30 1e+30 1e+30 1e+30 1e+30 1e+30 1e+30 1e+30 1e+30 1e+30 1e+30 1e+30 1e+30 1e+30 1e+30 1e+30 1e+30 1e+30 1e+30 1e+30 1e+30 1e+30 1e+30
1e+30 1e+30 1e+30 1e+30 1e+30 1e+30 1e+30 1e+30 1e+30 1e+30 1e+30 1e+30 1e+30 1e+30 1e+30 101.72914 101.59833 101.39753 101.2129 101.02244 100.82083 100.60777 100.38484 100.15447 99.919329 99.681974 99.444407 99.208298 98.974644 98.743804 98.515578 98.289348 98.064217 97.839143 97.613037 97.384845 97.153583 96.918369 96.678421 96.433049 96.18164 95.923642 95.658533 95.385809 95.104959 94.815449 94.516705 94.208101 93.888944 93.558468 93.215817 92.860042 92.490094 92.104818 91.702949 91.283113 90.843824 90.383488 89.900402 89.392755 88.85863 88.295997 87.702709 87.076494 86.414937 85.71546 84.975297 84.191453 83.360654 82.479281 81.543277 80.548023 79.488166 78.357375 77.147995 75.850529 74.452853 72.938974 71.287017 69.465966 67.430892 65.120114 62.48293 59.717826 58.775755 59.323108 59.972196 60.532837 61.003942 61.406562 61.757972 62.069525 62.348165 62.598039 62.821655 63.020605 63.195994 63.348678 63.479392 63.588809 63.677558 63.746225 63.795347 63.825407 63.836838 63.830026 63.80531 63.762972 63.703242 63.626309 63.532329 63.421445 63.29384 63.149777 62.989584 62.813532 62.62157 62.413561 62.189863 61.951408 61.70064 61.435834 61.152612 60.852718 60.524816 60.216501 59.917874 59.541536 59.307346 1e+30 1e+30 1e+30 1e+30 1e+30 1e+30 1e+30 1e+30 1e+30 1e+30 1e+30 1e+30 1e+30 1e+30 1e+30 1e+30 1e+30 1e+30 1e+30 1e+30 1e+30 1e+30 1e+30 1e+30 1e+30 1e+30 1e+30 1e+30 1e+30 1e+30 1e+30 1e+30 1e+30 1e+30 1e+30 1e+30 1e+30 1e+30 1e+30 1e+30 1e+30 1e+30 1e+30 1e+30 1e+30 1e+30 1e+30 1e+30 1e+30 1e+30 1e+30
1e+30 1e+30 1e+30 1e+30 1e+30 1e+30 1e+30 1e+30 1e+30 1e+30 1e+30 1e+30 1e+30 1e+30 101.97846 101.80995 101.61832 101.39581 101.16299 100.91983 100.66564 100.4014 100.12936 99.852585 99.574233 99.297279 99.024358 98.757297 98.497006 98.243535 97.99623 97.75395 97.515277 97.278691 97.042702 96.805932 96.567159 96.325328 96.079544 95.829053 95.573209 95.311449 95.043257 94.768139 94.485601 94.195121 93.89614 93.588038 93.270129 92.941641 92.601709 92.249368 91.883539 91.50303 91.106526 90.692591 90.259666 89.806072 89.330008 88.829555 88.302677 87.747215 87.160885 86.541265 85.885779 85.191673 84.455984 83.675491 82.846654 81.965533 81.027675 80.027953 78.96035 77.817644 76.590939 75.268956 73.836882 72.274423 70.552193 68.62429 66.410602 63.746575 60.211926 54.444444 53.888889 56.599186 57.987521 58.902408 59.591056 60.149634 60.623523 61.036229 61.400557 61.723861 62.010704 62.2642 62.486697 62.680114 62.846104 62.986138 63.101534 63.193481 63.263041 63.311159 63.338671 63.346313 63.334729 63.304478 63.256044 63.189847 63.106258 63.005619 62.888268 62.754556 62.604831 62.439386 62.258408 62.062076 61.850763 61.625064 61.385666 61.131973 60.862763 60.578371 60.27925 59.977184 59.66818 59.335823 59.010041 58.603131 58.357784 1e+30 1e+30 1e+30 1e+30 1e+30 1e+30 1e+30 1e+30 1e+30 1e+30 1e+30 1e+30 1e+30 1e+30 1e+30 1e+30 1e+30 1e+30 1e+30 1e+30 1e+30 1e+30 1e+30 1e+30 1e+30 1e+30 1e+30 1e+30 1e+30 1e+30 1e+30 1e+30 1e+30 1e+30 1e+30 1e+30 1e+30 1e+30 1e+30 1e+30 1e+30 1e+30 1e+30 1e+30 1e+30 1e+30 1e+30 1e+30 1e+30
1e+30 1e+30 1e+30 1e+30 1e+30 1e+30 1e+30 1e+30 1e+30 1e+30 1e+30 1e+30 102.49779 102.34727 102.09697 101.86387 101.61919 101.35441 101.07343 100.77824 100.47053 100.15282 99.828612 99.50182 99.176652 98.857258 98.546953 98.247838 97.960686 97.685073 97.419681 97.162634 96.911809 96.665079 96.420467 96.176227 95.930883 95.683216 95.432241 95.177164 94.917339 94.652221 94.381328 94.104202 93.820384 93.529387 93.230675 92.923653 92.607649 92.281897 91.945534 91.59758 91.236935 90.86237 90.472522 90.065891 89.640841 89.195601 88.72827 88.236818 87.719086 87.172792 86.595516 85.984701 85.337627 84.651391 83.922868 83.148664 82.325047 81.447854 80.512372 79.513165 78.443837 77.296694 76.062257 74.728519 73.279795 71.694866 69.943856 67.982853 65.744859 63.127725 60.001164 56.39665 53.888889 55.07368 56.382768 57.415571 58.231118 58.903686 59.478928 59.98176 60.425802 60.819077 61.166919 61.473334 61.741611 61.974589 62.174783 62.344437 62.485561 62.599944 62.689176 62.75466 62.797632 62.819174 62.820233 62.801639 62.764116 62.708304 62.634771 62.544033 62.436571 62.312836 62.17325 62.018184 61.847955 61.662867 61.463277 61.249574 61.022054 60.780596 60.524962 60.255505 59.973305 59.68137 59.378223 59.059818 58.729752 58.377474 58.04891 57.695614 1e+30 1e+30 1e+30 1e+30 1e+30 1e+30 1e+30 1e+30 1e+30 1e+30 1e+30 1e+30 1e+30 1e+30 1e+30 1e+30 1e+30 1e+30 1e+30 1e+30 1e+30 1e+30 1e+30 1e+30 1e+30 1e+30 1e+30 1e+30 1e+30 1e+30 1e+30 1e+30 1e+30 1e+30 1e+30 1e+30 1e+30 1e+30 1e+30 1e+30 1e+30 1e+30 1e+30 1e+30 1e+30 1e+30 1e+30 1e+30
1e+30 1e+30 1e+30 1e+30 1e+30 1e+30 1e+30 1e+30 1e+30 1e+30 1e+30 102.7667 102.59831 102.39705 102.14829 101.87938 101.59018 101.2792 100.94809 100.59918 100.23542 99.860757 99.479869 99.098161 98.721773 98.356383 98.006368 97.674222 97.360443 97.063846 96.782096 96.512268 96.251295 95.996282 95.744675 95.494331 95.243521 94.990892 94.735408 94.47628 94.212906 93.944803 93.671557 93.392775 93.108058 92.816968 92.519017 92.213643 91.9002 91.577945 91.246019 90.903442 90.549095 90.181716 89.799894 89.402061 88.986502 88.55135 88.094593 87.614086 87.107547 86.572566 86.006599 85.406959 84.770804 84.09511 83.376634 82.611865 81.796957 80.927636 79.999081 79.005758 77.941198 76.797687 75.56584 74.233987 72.787302 71.206562 69.466451 67.533538 65.365033 62.912668 60.144354 57.10191 53.888889 53.333333 54.967067 56.064195 56.936414 57.680282 58.334236 58.915391 59.432594 59.891702 60.297513 60.654357 60.966226 61.236789 61.469381 61.66701 61.832368 61.967841 62.075539 62.157316 62.214794 62.249392 62.262348 62.254747 62.227543 62.181578 62.117602 62.036289 61.938256 61.824062 61.694218 61.549181 61.389354 61.215108 61.026795 60.82473 60.609135 60.380071 60.137572 59.88188 59.613503 59.333064 59.039678 58.731489 58.407496 58.063859 57.700212 57.278114 56.706408 56.279318 55.995908 1e+30 1e+30 1e+30 1e+30 1e+30 1e+30 1e+30 1e+30 1e+30 1e+30 1e+30 1e+30 1e+30 1e+30 1e+30 1e+30 1e+30 1e+30 1e+30 1e+30 1e+30 1e+30 1e+30 1e+30 1e+30 1e+30 1e+30 1e+30 1e+30 1e+30 1e+30 1e+30 1e+30 1e+30 1e+30 1e+30 1e+30 1e+30 1e+30 1e+30 1e+30 1e+30 1e+30 1e+30 1e+30
1e+30 1e+30 1e+30 1e+30 1e+30 1e+30 1e+30 1e+30 1e+30 1e+30 103.05901 102.8851 102.6817 102.44433 102.16977 101.86517 101.53294 101.17413 100.79055 100.38496 99.961219 99.52442 99.080484 98.63741 98.20383 97.787788 97.395321 97.029431 96.690028 96.374622 96.079304 95.799638 95.5313 95.270447 95.01388 94.759052 94.504022 94.247358 93.98804 93.725354 93.458803 93.18802 92.912702 92.632559 92.347273 92.05648 91.759749 91.456569 91.146336 90.828337 90.501735 90.165554 89.818666 89.459781 89.087436 88.7 88.295665 87.872461 87.42826 86.960789 86.467637 85.946266 85.394006 84.808058 84.185472 83.523133 82.817721 82.065667 81.26309 80.405713 79.488752 78.506778 77.453525 76.321653 75.102427 73.785312 72.357476 70.803236 69.103631 67.236623 65.179288 62.914978 60.45079 57.851598 55.29887 53.333333 54.002741 54.857075 55.692133 56.471167 57.188777 57.841208 58.427248 58.948671 59.40918 59.813328 60.165834 60.471226 60.733686 60.956992 61.144515 61.299233 61.42376 61.520381 61.591088 61.637615 61.661473 61.663984 61.64631 61.609479 61.554409 61.481921 61.392756 61.287586 61.167013 61.031575 60.88175 60.717956 60.54056 60.349861 60.146071 59.929303 59.699624 59.457115 59.20185 58.93369 58.651799 58.354691 58.040437 57.705622 57.344945 56.944401 56.495893 56.070484 55.647879 55.082515 54.610388 54.191162 53.809093 53.46094 53.156889 52.937221 1e+30 1e+30 1e+30 1e+30 1e+30 1e+30 1e+30 1e+30 1e+30 1e+30 1e+30 1e+30 1e+30 1e+30 1e+30 1e+30 1e+30 1e+30 1e+30 1e+30 1e+30 1e+30 1e+30 1e+30 1e+30 1e+30 1e+30 1e+30 1e+30 1e+30 1e+30 1e+30 1e+30 1e+30 1e+30 1e+30 1e+30 1e+30
1e+30 1e+30 1e+30 1e+30 1e+30 1e+30 1e+30 1e+30 1e+30 103.35204 103.18292 102.98299 102.74906 102.47881 102.1713 101.82858 101.45231 101.04381 100.60503 100.13891 99.649929 99.143583 98.628217 98.114771 97.615597 97.142552 96.704366 96.304611 95.941904 95.611463 95.3069 95.021618 94.749659 94.486074 94.226993 93.969524 93.711601 93.451816 93.189267 92.92341 92.653937 92.380667 92.103462 91.822167 91.536576 91.246412 90.951317 90.650845 90.344447 90.031456 89.71107 89.382331 89.04411 88.695092 88.33377 87.958436 87.567188 87.157936 86.728423 86.276234 85.798819 85.293504 84.757497 84.187887 83.581638 82.935569 82.246322 81.510324 80.723732 79.882361 78.981591 78.016262 76.980531 75.867712 74.670081 73.378679 71.983137 70.471638 68.831221 67.048872 65.114146 63.024244 60.79134 58.446432 56.012032 53.333333 52.777778 53.590742 54.425803 55.246933 56.033826 56.760573 57.415302 57.996711 58.5085 58.956164 59.345537 59.682197 59.971251 60.217278 60.424327 60.595951 60.735247 60.844905 60.927256 60.98432 61.017854 61.02939 61.020277 60.991709 60.944754 60.880367 60.79941 60.702659 60.590809 60.464481 60.324216 60.170483 60.003671 59.824088 59.631945 59.427357 59.210356 58.980896 58.738806 58.483675 58.214657 57.930436 57.62919 57.308315 56.964362 56.593205 56.196814 55.793335 55.376439 54.922735 54.491369 54.088011 53.709213 53.350886 53.006612 52.651852 52.169112 51.767569 51.435045 51.204373 1e+30 1e+30 1e+30 1e+30 1e+30 1e+30 1e+30 1e+30 1e+30 1e+30 1e+30 1e+30 1e+30 1e+30 1e+30 1e+30 1e+30 1e+30 1e+30 1e+30 1e+30 1e+30 1e+30 1e+30 1e+30 1e+30 1e+30 1e+30 1e+30 1e+30 1e+30 1e+30 1e+30 1e+30
1e+30 1e+30 1e+30 1e+30 1e+30 1e+30 1e+30 1e+30 103.61626 103.47117 103.28763 103.06488 102.80273 102.50056 102.15802 101.77557 101.35388 100.8938 100.39684 99.865723 99.304575 98.719536 98.12132 97.524678 96.94762 96.408487 95.920742 95.488314 95.106952 94.767772 94.460487 94.175481 93.904781 93.642263 93.383478 93.125344 92.865836 92.60373 92.338383 92.069552 91.797226 91.521496 91.242449 90.960107 90.674389 90.385117 90.092017 89.794717 89.492744 89.185493 88.872213 88.551979 88.223674 87.885969 87.53731 87.175909 86.799755 86.406622 85.994098 85.559609 85.100448 84.613791 84.096719 83.546216 82.959168 82.332352 81.662407 80.945802 80.178792 79.35736 78.477151 77.53339 76.520802 75.433513 74.264979 73.00794 71.654476 70.196255 68.625137 66.93441 65.120922 63.188217 61.149897 59.03079 56.86277 54.692511 52.777778 52.222222 53.093899 53.97888 54.862996 55.677981 56.404499 57.043685 57.602474 58.088805 58.510262 58.873725 59.18532 59.450442 59.673811 59.859527 60.011134 60.131686 60.223812 60.28978 60.331553 60.350844 60.349159 60.327837 60.288074 60.23095 60.157438 60.068416 59.964671 59.846901 59.715716 59.571635 59.415081 59.246376 59.065734 58.873259 58.668941 58.452648 58.224091 57.982759 57.72785 57.458238 57.172484 56.868859 56.545602 56.201716 55.839225 55.46388 55.075854 54.674577 54.278319 53.894279 53.522808 53.160653 52.800542 52.427597 52.020667 51.631599 51.266428 50.907215 50.453374 50.164582 1e+30 1e+30 1e+30 1e+30 1e+30 1e+30 1e+30 1e+30 1e+30 1e+30 1e+30 1e+30 1e+30 1e+30 1e+30 1e+30 1e+30 1e+30 1e+30 1e+30 1e+30 1e+30 1e+30 1e+30 1e+30 1e+30 1e+30 1e+30 1e+30 1e+30 1e+30 1e+30
1e+30 1e+30 1e+30 1e+30 1e+30 1e+30 1e+30 1e+30 103.71135 103.57875 103.38157 103.13618 102.84642 102.5127 102.13464 101.7118 101.24385 100.73067 100.17279 99.571999 98.930762 98.255718 97.559273 96.86081 96.186987 95.567899 95.026411 94.565432 94.174249 93.836601 93.536202 93.259437 92.996094 92.739047 92.48358 92.226727 91.966766 91.702875 91.434866 91.162955 90.88757 90.609179 90.328163 90.044747 89.758986 89.470792 89.179975 88.886251 88.589238 88.28842 87.983119 87.672463 87.355363 87.030487 86.696238 86.350743 85.991858 85.617196 85.22416 84.809983 84.371774 83.906544 83.411231 82.882714 82.317811 81.713272 81.06576 80.371824 79.627864 78.830088 77.974469 77.056694 76.07212 75.015749 73.882224 72.665901 71.36102 69.962077 68.464475 66.865607 65.166428 63.373428 61.500645 59.571107 57.618395 55.694579 53.891302 52.222222 51.666667 52.631229 53.683584 54.6087 55.407944 56.099609 56.698744 57.217183 57.664658 58.049454 58.378719 58.658644 58.894578 59.091121 59.252211 59.381213 59.480997 59.554026 59.602423 59.62804 59.632507 59.61728 59.583668 59.53286 59.465932 59.383861 59.287525 59.177704 59.055077 58.920217 58.773587 58.615531 58.44627 58.265896 58.074368 57.871499 57.656944 57.430169 57.190433 56.936798 56.668181 56.383471 56.081804 55.763078 55.428658 55.081181 54.722484 54.35531 53.986922 53.621799 53.260825 52.901996 52.540736 52.170482 51.787346 51.404665 51.024676 50.636978 50.22049 49.808641 49.293408 48.973456 1e+30 1e+30 1e+30 1e+30 1e+30 1e+30 1e+30 1e+30 1e+30 1e+30 1e+30 1e+30 1e+30 1e+30 1e+30 1e+30 1e+30 1e+30 1e+30 1e+30 1e+30 1e+30 1e+30 1e+30 1e+30 1e+30 1e+30 1e+30 1e+30 1e+30
1e+30 1e+30 1e+30 1e+30 1e+30 1e+30 1e+30 104.07053 103.88903 103.70092 103.47371 103.20186 102.88405 102.5192 102.10604 101.64315 101.12905 100.56225 99.941671 99.26689 98.537718 97.75948 96.944575 96.116789 95.315385 94.593007 93.994693 93.51589 93.131244 92.811531 92.531734 92.273493 92.024662 91.777795 91.528575 91.274653 91.014972 90.749383 90.478376 90.202837 89.923804 89.642252 89.358931 89.074285 88.788473 88.501465 88.213137 87.923308 87.631717 87.337968 87.041484 86.741472 86.436894 86.126436 85.808465 85.481011 85.141773 84.788159 84.41734 84.026314 83.611965 83.171109 82.700529 82.196987 81.657238 81.078017 80.456032 79.787938 79.070314 78.299632 77.472228 76.58428 75.631798 74.610632 73.516532 72.345263 71.092838 69.755887 68.332256 66.821844 65.22771 63.557333 61.823867 60.047181 58.254918 56.484108 54.779393 53.1661 51.666667 51.111111 52.551724 53.589084 54.445154 55.175989 55.804968 56.346809 56.812835 57.212457 57.553714 57.843504 58.087735 58.291434 58.458863 58.593618 58.698741 58.776822 58.830083 58.860467 58.869689 58.859292 58.83068 58.785135 58.723833 58.647848 58.558149 58.455603 58.340962 58.214861 58.07781 57.93018 57.772205 57.603968 57.425406 57.236295 57.036258 56.824755 56.601097 56.36448 56.114059 55.84907 55.569037 55.274049 54.965006 54.643497 54.311325 53.970937 53.625889 53.278725 52.930152 52.579089 52.223071 51.859199 51.486365 51.107682 50.723077 50.327664 49.914884 49.487356 49.029367 48.58569 48.04292 47.719465 1e+30 1e+30 1e+30 1e+30 1e+30 1e+30 1e+30 1e+30 1e+30 1e+30 1e+30 1e+30 1e+30 1e+30 1e+30 1e+30 1e+30 1e+30 1e+30 1e+30 1e+30 1e+30 1e+30 1e+30 1e+30 1e+30 1e+30 1e+30
1e+30 1e+30 1e+30 1e+30 1e+30 1e+30 104.3449 104.20203 104.02332 103.81221 103.56048 103.26352 102.91873 102.524 102.07715 101.57573 101.01693 100.39762 99.714486 98.96324 98.139917 97.245036 96.286692 95.289081 94.306381 93.4351 92.784585 92.313639 91.965132 91.688706 91.448128 91.22073 90.993956 90.761618 90.520976 90.270986 90.011643 89.743749 89.468733 89.188395 88.904605 88.619018 88.332833 88.046693 87.760767 87.474988 87.189263 86.903535 86.617721 86.331592 86.044705 85.756374 85.465648 85.171263 84.871571 84.564493 84.247529 83.917817 83.572229 83.207461 82.820122 82.406795 81.964079 81.488613 80.977084 80.426223 79.832796 79.193586 78.505371 77.764906 76.968909 76.114048 75.196957 74.214273 73.162711 72.039209 70.841148 69.566696 68.215273 66.788177 65.289312 63.725957 62.109444 60.455589 58.784729 57.121006 55.489425 53.910222 52.413967 51.111111 51.742112 52.67411 53.533391 54.281736 54.927135 55.482056 55.957997 56.365021 56.711853 57.005983 57.253786 57.460627 57.630993 57.768619 57.876622 57.957632 58.0139 58.047397 58.059882 58.052954 58.028089 57.986655 57.929924 57.859065 57.775147 57.67913 57.571848 57.454008 57.32617 57.188745 57.041981 56.885959 56.720593 56.545628 56.360653 56.16511 55.958326 55.739562 55.508083 55.263268 55.004752 54.732575 54.447288 54.149905 53.841767 53.524568 53.200255 52.870268 52.535072 52.194108 51.846074 51.489518 51.123704 50.748914 50.364354 49.96752 49.555562 49.127725 48.682037 48.22738 47.754068 47.327606 46.889799 1e+30 1e+30 1e+30 1e+30 1e+30 1e+30 1e+30 1e+30 1e+30 1e+30 1e+30 1e+30 1e+30 1e+30 1e+30 1e+30 1e+30 1e+30 1e+30 1e+30 1e+30 1e+30 1e+30 1e+30 1e+30 1e+30 1e+30
1e+30 1e+30 1e+30 1e+30 1e+30 1e+30 104.43776 104.31937 104.14 103.91413 103.64247 103.323 102.95334 102.53092 102.05285 101.51569 100.91533 100.2468 99.504115 98.678109 97.758986 96.737958 95.61025 94.386654 93.124285 91.993874 91.333249 90.928285 90.667133 90.47089 90.292675 90.108985 89.910625 89.695633 89.464606 89.218497 88.958586 88.686829 88.405858 88.118694 87.828346 87.537384 87.247569 86.959661 86.673597 86.389064 86.105935 85.824348 85.544507 85.266432 84.98984 84.714167 84.438602 84.162 83.88274 83.59862 83.306873 83.004272 82.687284 82.352212 81.99532 81.61291 81.201369 80.757195 80.277008 79.757538 79.195623 78.588186 77.932219 77.224773 76.46294 75.643864 74.764758 73.822952 72.81598 71.741711 70.598551 69.385716 68.103582 66.754111 65.341303 63.871607 62.354191 60.800892 59.225623 57.642771 56.063526 54.48805 52.886107 51.111111 50.555556 51.756036 52.658368 53.417729 54.068272 54.625701 55.102207 55.508463 55.853805 56.14624 56.392512 56.59822 56.767957 56.90547 57.013833 57.095606 57.152979 57.187884 57.202072 57.197169 57.174707 57.136132 57.082811 57.01602 56.936935 56.84662 56.746005 56.635877 56.516862 56.389415 56.253806 56.110114 55.958227 55.797852 55.628524 55.44964 55.260495 55.060336 54.848432 54.624166 54.387129 54.137211 53.874658 53.600045 53.31422 53.018226 52.713154 52.399803 52.078441 51.748756 51.41001 51.061343 50.702093 50.331795 49.949563 49.553903 49.143257 48.716793 48.27427 47.818002 47.348604 46.876937 46.38261 45.847453 1e+30 1e+30 1e+30 1e+30 1e+30 1e+30 1e+30 1e+30 1e+30 1e+30 1e+30 1e+30 1e+30 1e+30 1e+30 1e+30 1e+30 1e+30 1e+30 1e+30 1e+30 1e+30 1e+30 1e+30 1e+30 1e+30
1e+30 1e+30 1e+30 1e+30 1e+30 104.73616 104.59903 104.44769 104.25319 104.01185 103.72228 103.38269 102.99071 102.5435 102.03763 101.46886 100.83192 100.12012 99.324878 98.431922 97.424391 96.280125 94.969733 93.459668 91.742964 90.013305 89.560699 89.335835 89.242584 89.174558 89.082965 88.95263 88.784888 88.586733 88.364371 88.120789 87.85823 87.579816 87.289686 86.992502 86.692847 86.394592 86.100258 85.810535 85.524559 85.241324 84.960597 84.682908 84.409002 84.139276 83.87357 83.611424 83.352245 83.095151 82.838645 82.580387 82.317228 82.045414 81.760849 81.45932 81.136656 80.788821 80.411961 80.002422 79.556749 79.071684 78.544144 77.971206 77.350088 76.678135 75.952811 75.171704 74.332553 73.43329 72.472122 71.447648 70.359014 69.206126 67.989892 66.712492 65.377626 63.99069 62.558793 61.090456 59.594859 58.080388 56.552273 55.009789 53.447048 51.880721 50.555556 51.059295 51.852017 52.589733 53.230813 53.779387 54.246406 54.643029 54.97923 55.263493 55.502846 55.702993 55.868483 56.002916 56.109161 56.189573 56.246171 56.280768 56.29506 56.290671 56.269177 56.232104 56.180921 56.117026 56.041718 55.956183 55.861462 55.75844 55.647822 55.530117 55.405624 55.274419 55.136359 54.991089 54.838068 54.676605 54.505906 54.325131 54.133466 53.930198 53.71478 53.486904 53.24652 52.993837 52.729268 52.453364 52.166686 51.869638 51.562329 51.244543 50.915809 50.575536 50.22314 49.858023 49.479391 49.086216 48.677452 48.25232 47.810365 47.351561 46.874933 46.377946 45.84451 45.241767 44.482695 44.040871 1e+30 1e+30 1e+30 1e+30 1e+30 1e+30 1e+30 1e+30 1e+30 1e+30 1e+30 1e+30 1e+30 1e+30 1e+30 1e+30 1e+30 1e+30 1e+30 1e+30 1e+30 1e+30 1e+30 1e+30
1e+30 1e+30 1e+30 1e+30 1e+30 104.82328 104.72451 104.56915 104.36325 104.10777 103.80213 103.44475 103.0333 102.56475 102.03531 101.4402 100.77335 100.02689 99.190332 98.245594 97.17017 95.929734 94.46669 92.671402 90.297125 86.666667 87.489999 87.545296 87.729201 87.840024 87.851329 87.773596 87.629733 87.442287 87.225581 86.982181 86.713687 86.424265 86.120074 85.808051 85.494997 85.18675 84.887065 84.596287 84.311322 84.029551 83.750641 83.476065 83.207695 82.946499 82.692195 82.444256 82.202461 81.966521 81.73529 81.506244 81.275638 81.03892 80.791195 80.527561 80.243313 79.934022 79.595567 79.224133 78.8162 78.368526 77.878124 77.342239 76.758326 76.124027 75.437167 74.695753 73.897994 73.042342 72.127556 71.152797 70.117745 69.022744 67.868966 66.658563 65.39478 64.08198 62.725539 61.331461 59.905693 58.453006 56.975455 55.470557 53.928979 52.32587 50.555556 50 51.026952 51.785653 52.414056 52.943522 53.390402 53.767778 54.08661 54.355862 54.582731 54.772874 54.930604 55.059153 55.16098 55.238055 55.292092 55.324704 55.337484 55.332038 55.309984 55.272938 55.222493 55.160187 55.087473 55.00568 54.915984 54.819388 54.716692 54.608477 54.495077 54.37657 54.252765 54.123223 53.987287 53.844126 53.692796 53.532304 53.361673 53.180017 52.986595 52.780859 52.562478 52.331333 52.087479 51.83109 51.562371 51.281456 50.988334 50.682813 50.364551 50.033106 49.687988 49.328648 48.954425 48.56454 48.158173 47.734544 47.292876 46.832174 46.350461 45.8437 45.303212 44.718533 44.092245 43.528266 42.947969 1e+30 1e+30 1e+30 1e+30 1e+30 1e+30 1e+30 1e+30 1e+30 1e+30 1e+30 1e+30 1e+30 1e+30 1e+30 1e+30 1e+30 1e+30 1e+30 1e+30 1e+30 1e+30 1e+30
1e+30 1e+30 1e+30 1e+30 1e+30 104.95918 104.8566 104.69115 104.47287 104.20386 103.88372 103.51089 103.08299 102.5969 102.04866 101.43328 100.74441 99.973768 99.110269 98.134832 97.02405 95.742435 94.232161 92.390272 90.014312 86.666667 86.111111 85.555556 86.223367 86.54229 86.647425 86.600001 86.457645 86.266577 86.052896 85.807939 85.529114 85.222232 84.89672 84.56274 84.230169 83.907956 83.602434 83.313609 83.03221 82.75217 82.47354 82.200166 81.936362 81.684022 81.441727 81.208331 80.984362 80.770924 80.567731 80.371925 80.178718 79.982294 79.776599 79.555834 79.314659 79.048221 78.752125 78.422401 78.055475 77.64814 77.197527 76.701068 76.156469 75.56168 74.914879 74.214467 73.459083 72.64763 71.779323 70.853761 69.871007 68.831688 67.737085 66.58921 65.390837 64.145446 62.857059 61.529888 60.167773 58.773415 57.347494 55.887998 54.390655 52.853875 51.307735 50 50.395605 51.039128 51.624409 52.118986 52.533004 52.880393 53.173032 53.420158 53.628941 53.804807 53.951575 54.071811 54.167269 54.239306 54.289175 54.318204 54.327857 54.319719 54.295468 54.256835 54.205567 54.143383 54.071923 53.992695 53.907036 53.816089 53.720776 53.621772 53.519464 53.41393 53.304919 53.191874 53.073971 52.950179 52.819336 52.680221 52.531628 52.372433 52.201649 52.018467 51.822276 51.612661 51.389376 51.152302 50.901386 50.636574 50.357758 50.064749 49.757276 49.435003 49.097543 48.744449 48.375197 47.989181 47.585725 47.164088 46.723387 46.26241 45.779244 45.270897 44.733255 44.163554 43.566304 42.958259 42.29536 41.473359 40.999629 1e+30 1e+30 1e+30 1e+30 1e+30 1e+30 1e+30 1e+30 1e+30 1e+30 1e+30 1e+30 1e+30 1e+30 1e+30 1e+30 1e+30 1e+30 1e+30 1e+30 1e+30
1e+30 1e+30 1e+30 1e+30 105.29253 105.14766 105.00154 104.81599 104.58323 104.30108 103.96801 103.5821 103.14088 102.6412 102.07915 101.44987 100.74722 99.963392 99.088144 98.104082 96.991638 95.724138 94.265729 92.573019 90.618503 88.515279 87.085011 85.555556 85 85.395652 85.534738 85.460354 85.273162 85.052179 84.850105 84.606004 84.310715 83.976534 83.619084 83.252833 82.891421 82.54864 82.237145 81.959526 81.687735 81.409303 81.127019 80.85047 80.589336 80.347338 80.118306 79.899064 79.692005 79.501605 79.329628 79.17222 79.02263 78.872964 78.715488 78.543294 78.350369 78.131452 77.881902 77.597616 77.274994 76.910891 76.502586 76.047729 75.544302 74.990576 74.385086 73.726615 73.014199 72.24714 71.425042 70.547856 69.615931 68.63008 67.591618 66.502396 65.364774 64.181535 62.955713 61.690292 60.38778 59.049682 57.67595 56.264566 54.811333 53.309012 51.738396 50 49.444444 50.27868 50.853788 51.303674 51.671064 51.976638 52.233832 52.451626 52.636852 52.794587 52.927804 53.037955 53.125677 53.191406 53.235759 53.259716 53.264617 53.252071 53.22385 53.181839 53.127986 53.064249 52.992511 52.914498 52.83174 52.745545 52.656989 52.566874 52.475673 52.383472 52.289941 52.194362 52.095676 51.992578 51.883608 51.767239 51.641964 51.506363 51.35916 51.19926 51.025771 50.838006 50.63546 50.41778 50.184718 49.936085 49.671706 49.391393 49.094933 48.782082 48.45256 48.106046 47.742158 47.360446 46.960379 46.541325 46.102486 45.642792 45.16077 44.654514 44.122022 43.562371 42.977092 42.368295 41.725495 41.049625 40.453385 39.853579 1e+30 1e+30 1e+30 1e+30 1e+30 1e+30 1e+30 1e+30 1e+30 1e+30 1e+30 1e+30 1e+30 1e+30 1e+30 1e+30 1e+30 1e+30 1e+30 1e+30
1e+30 1e+30 1e+30 1e+30 105.3874 105.28738 105.13593 104.93805 104.69296 104.39923 104.05513 103.65863 103.20721 102.69786 102.12688 101.48982 100.7812 99.994286 99.120747 98.146333 97.05721 95.837384 94.470956 92.950028 91.29649 89.608089 88.088332 86.572627 85 84.444444 84.574951 84.372563 84.060736 83.756598 83.627198 83.39294 83.068426 82.690709 82.286203 81.873425 81.468852 81.092494 80.772348 80.534158 80.284505 80.004798 79.709102 79.419569 79.157377 78.932008 78.719561 78.512232 78.317808 78.148978 78.012479 77.900716 77.803171 77.708536 77.606705 77.489571 77.350582 77.184195 76.985592 76.750581 76.475564 76.157502 75.793864 75.382563 74.921895 74.41048 73.847223 73.231288 72.562089 71.839294 71.062849 70.233 69.350329 68.415783 67.43069 66.396759 65.31603 64.19078 63.023356 61.815945 60.570246 59.287102 57.966137 56.605501 55.201879 53.751221 52.252934 50.736653 49.444444 49.704769 50.136819 50.499481 50.799493 51.049654 51.262237 51.44369 51.600128 51.736642 51.854774 51.954151 52.033661 52.092423 52.130236 52.147724 52.146204 52.127406 52.093261 52.045847 51.987382 51.920151 51.846361 51.76801 51.68684 51.604345 51.521791 51.440173 51.3601 51.281695 51.204529 51.127653 51.04969 50.968956 50.883597 50.791693 50.69136 50.580821 50.458468 50.322896 50.172931 50.007625 49.826248 49.628256 49.413256 49.180963 48.931163 48.663686 48.37838 48.075096 47.753676 47.413936 47.05565 46.678533 46.282225 45.866261 45.430036 44.972754 44.493406 43.990836 43.464003 42.912458 42.336632 41.737045 41.112932 40.47085 39.834852 39.179695 38.481368 1e+30 1e+30 1e+30 1e+30 1e+30 1e+30 1e+30 1e+30 1e+30 1e+30 1e+30 1e+30 1e+30 1e+30 1e+30 1e+30 1e+30 1e+30 1e+30
1e+30 1e+30 1e+30 1e+30 105.53229 105.42855 105.26675 105.05731 104.80135 104.49773 104.14467 103.74007 103.28149 102.76614 102.19071 101.55133 100.84346 100.06178 99.200142 98.247981 97.196619 96.038367 94.769201 93.394807 91.940604 90.460646 89.017563 87.57532 86.085738 84.444444 83.888889 83.333333 82.777778 82.222222 82.446455 82.207282 81.815711 81.367104 80.896092 80.41943 79.950909 79.512426 79.15784 79.053296 78.844595 78.549336 78.217705 77.893715 77.62095 77.436391 77.248545 77.045463 76.851134 76.69746 76.60457 76.549626 76.516143 76.487352 76.449942 76.395032 76.316066 76.207499 76.064429 75.882606 75.658469 75.389131 75.072316 74.706265 74.289644 73.821467 73.301034 72.7279 72.101851 71.422905 70.691319 69.907605 69.072545 68.187204 67.252932 66.271339 65.244245 64.173589 63.061283 61.909029 60.718084 59.488976 58.221236 56.913145 55.561505 54.161241 52.703706 51.166418 49.444444 48.888889 49.418332 49.686599 49.906006 50.088056 50.249205 50.387869 50.510153 50.623706 50.727002 50.816633 50.88875 50.940689 50.971269 50.980888 50.97112 50.944038 50.901779 50.846633 50.78117 50.708144 50.630227 50.549752 50.468656 50.388606 50.311113 50.237466 50.168529 50.104513 50.044861 49.988297 49.932987 49.87674 49.81718 49.751894 49.678538 49.594916 49.49904 49.389173 49.263848 49.121874 48.962318 48.784482 48.587867 48.372131 48.137053 47.8825 47.6084 47.314716 47.001426 46.668503 46.315893 45.943496 45.551148 45.138593 44.705464 44.251265 43.775383 43.277159 42.756038 42.211766 41.644465 41.05442 40.442049 39.809481 39.158335 38.470784 37.707305 36.761636 36.224161 1e+30 1e+30 1e+30 1e+30 1e+30 1e+30 1e+30 1e+30 1e+30 1e+30 1e+30 1e+30 1e+30 1e+30 1e+30 1e+30 1e+30
1e+30 1e+30 1e+30 105.89523 105.73092 105.57776 105.39523 105.17308 104.90739 104.59567 104.23575 103.82547 103.36256 102.8445 102.26847 101.63133 100.92954 100.15924 99.316331 98.393709 97.38642 96.292081 95.112456 93.856816 92.54545 91.209382 89.878112 88.555827 87.250237 86.015643 85.125883 84.323733 83.453659 82.222222 81.666667 81.111111 80.555556 80 79.444444 78.888889 78.333333 77.777778 77.222222 77.608433 77.423491 77.061888 76.649458 76.246744 75.926309 75.874904 75.723943 75.501073 75.274885 75.116505 75.090822 75.110077 75.158383 75.209674 75.246416 75.261049 75.248334 75.203076 75.120289 74.995622 74.825563 74.607446 74.339343 74.019918 73.648291 73.223928 72.746567 72.21617 71.632904 70.997126 70.309395 69.570469 68.781321 67.943137 67.057305 66.125394 65.149098 64.130159 63.070249 61.970826 60.832962 59.657138 58.443019 57.189222 55.893026 54.54997 53.153508 51.697221 50.199319 48.888889 48.890157 48.851036 48.97762 49.074397 49.185143 49.274419 49.35449 49.446342 49.538056 49.621712 49.689037 49.735268 49.75813 49.758187 49.737966 49.700315 49.647498 49.581891 49.50652 49.424894 49.340406 49.255793 49.17306 49.093947 49.02027 48.953825 48.895959 48.847089 48.806473 48.772338 48.74219 48.713134 48.682126 48.646141 48.602285 48.547874 48.480496 48.398053 48.29878 48.18125 48.044356 47.88728 47.709455 47.510521 47.290282 47.048676 46.785734 46.501552 46.196267 45.870032 45.522986 45.155239 44.766844 44.357778 43.927931 43.477096 43.004988 42.511297 41.99576 41.458251 40.898788 40.31745 39.714284 39.08917 38.440025 37.758538 37.03423 36.273783 35.611154 34.951134 1e+30 1e+30 1e+30 1e+30 1e+30 1e+30 1e+30 1e+30 1e+30 1e+30 1e+30 1e+30 1e+30 1e+30 1e+30 1e+30
1e+30 1e+30 106.1217 106.00954 105.8684 105.70636 105.51331 105.28238 105.00948 104.69182 104.32718 103.91352 103.44877 102.93081 102.35736 101.72598 101.03414 100.27929 99.459071 98.569252 97.607223 96.573631 95.472677 94.313757 93.112461 91.889266 90.664422 89.453063 88.275617 87.172858 86.210618 85.318939 84.427103 83.501866 82.774964 82.119475 81.493119 80.87864 80.265885 79.643855 78.990998 78.248228 77.222222 76.666667 76.111111 75.555556 75 74.444444 73.888889 74.342236 74.200985 73.88915 73.559309 73.331333 73.461929 73.572524 73.730009 73.880146 73.999673 74.090023 74.149578 74.173338 74.1558 74.092305 73.979387 73.81471 73.596844 73.325022 72.998929 72.618565 72.184155 71.696098 71.154948 70.561406 69.916323 69.220701 68.475703 67.682643 66.84298 65.958291 65.030226 64.060443 63.050523 62.001861 60.915539 59.792193 58.631843 57.433704 56.195896 54.914869 53.583903 52.188149 50.683643 48.888889 48.333333 47.777778 48.006069 47.972715 48.067876 48.094837 48.111094 48.192869 48.280797 48.366711 48.433983 48.476726 48.491194 48.479006 48.445303 48.394615 48.328654 48.249338 48.160334 48.066518 47.972563 47.881688 47.795511 47.715497 47.643872 47.583381 47.536335 47.50359 47.484086 47.475231 47.473532 47.475129 47.476123 47.472753 47.461485 47.439081 47.402653 47.349712 47.27819 47.186441 47.07321 46.9376 46.779016 46.597122 46.39179 46.16306 45.911098 45.636166 45.338587 45.018716 44.676917 44.313527 43.928842 43.52309 43.096422 42.648906 42.180541 41.691282 41.181087 40.649938 40.097843 39.524761 38.930497 38.314453 37.675048 37.009464 36.317181 35.608735 34.915788 34.213783 33.479345 1e+30 1e+30 1e+30 1e+30 1e+30 1e+30 1e+30 1e+30 1e+30 1e+30 1e+30 1e+30 1e+30 1e+30 1e+30
1e+30 1e+30 106.18386 106.10281 105.97679 105.81597 105.61929 105.38366 105.10631 104.78495 104.41765 104.00264 103.53821 103.02263 102.45417 101.8311 101.15176 100.4147 99.618923 98.762469 97.844015 96.8658 95.832843 94.753699 93.640671 92.508887 91.374288 90.252483 89.161663 88.124788 87.161263 86.251361 85.370586 84.518382 83.749055 83.036816 82.35743 81.694505 81.035755 80.368902 79.67769 78.940032 78.148521 77.479309 76.847602 76.22082 75.572755 74.850349 73.888889 73.333333 72.777778 72.222222 71.666667 71.111111 71.780023 71.916705 72.239551 72.51347 72.715656 72.884455 73.022263 73.121399 73.174509 73.176263 73.123306 73.013862 72.847254 72.623494 72.342987 72.006362 71.614386 71.16792 70.667919 70.115427 69.511586 68.857642 68.154949 67.404967 66.609252 65.769432 64.887179 63.964155 63.001959 62.002047 60.965653 59.893714 58.786784 57.644939 56.467686 55.253824 54.001309 52.70755 51.373672 50.03675 48.990283 47.777778 47.222222 46.666667 46.942839 46.849035 46.724181 46.855108 46.947403 47.052308 47.125463 47.168439 47.172761 47.142969 47.090996 47.025294 46.943991 46.846999 46.739181 46.628223 46.521358 46.42244 46.331247 46.248056 46.175744 46.118983 46.082087 46.066813 46.071388 46.091752 46.122857 46.159526 46.196814 46.230117 46.255183 46.268147 46.265592 46.244609 46.202824 46.138392 46.049953 45.936574 45.797688 45.63303 45.442585 45.226535 44.985221 44.719102 44.428721 44.114671 43.777562 43.417992 43.03652 42.633641 42.209774 41.765251 41.300328 40.815193 40.309989 39.784822 39.239748 38.674725 38.089543 37.483712 36.856394 36.206771 35.535646 34.84748 34.148213 33.426632 32.665946 31.852373 1e+30 1e+30 1e+30 1e+30 1e+30 1e+30 1e+30 1e+30 1e+30 1e+30 1e+30 1e+30 1e+30 1e+30
1e+30 106.34688 106.27708 106.19107 106.06998 105.91144 105.71421 105.47667 105.19714 104.87402 104.50583 104.09119 103.62878 103.11732 102.55559 101.94249 101.27709 100.55884 99.787693 98.963481 98.085464 97.156625 96.182059 95.169313 94.128367 93.071079 92.010264 90.959118 89.931476 88.940959 87.99617 87.092719 86.223445 85.389776 84.604433 83.860195 83.144517 82.445632 81.753252 81.057771 80.35 79.624148 78.889787 78.19271 77.517824 76.846174 76.158548 75.433188 74.662204 73.994238 73.352322 72.700376 71.993387 71.111111 70.555556 70 70.72663 71.149498 71.397418 71.643522 71.868422 72.051318 72.181271 72.252346 72.261705 72.208607 72.093557 71.917648 71.682192 71.388544 71.038055 70.632069 70.171942 69.659058 69.09485 68.480804 67.818475 67.109478 66.355488 65.558221 64.719417 63.840807 62.924076 61.970823 60.982518 59.960478 58.90586 57.819691 56.702966 55.556944 54.383891 53.189108 51.98645 50.811591 49.73508 48.686474 47.774049 46.666667 46.111111 45.555556 45 45.47564 45.521172 45.689866 45.767503 45.819227 45.808685 45.749015 45.669946 45.590777 45.49387 45.373933 45.239179 45.103442 44.979504 44.872563 44.775936 44.686588 44.608874 44.551583 44.523279 44.527591 44.560775 44.615974 44.68569 44.763034 44.841889 44.916769 44.982658 45.034992 45.069753 45.083576 45.073787 45.038379 44.975943 44.885578 44.766806 44.619493 44.443785 44.240056 44.008863 43.750901 43.466972 43.157939 42.824699 42.468139 42.089108 41.688387 41.26667 40.824556 40.362541 39.881034 39.380355 38.860746 38.322358 37.765223 37.189217 36.594031 35.979201 35.344332 34.689536 34.015357 33.320365 32.595088 31.820705 30.957935 29.891768 29.292119 1e+30 1e+30 1e+30 1e+30 1e+30 1e+30 1e+30 1e+30 1e+30 1e+30 1e+30 1e+30
1e+30 106.36669 106.33649 106.26441 106.15062 105.99559 105.79943 105.56168 105.28157 104.95815 104.59046 104.17751 103.7184 103.21227 102.65838 102.05616 101.40529 100.70586 99.958511 99.164421 98.323074 97.437679 96.51308 95.555867 94.574287 93.577883 92.576956 91.582064 90.603575 89.650617 88.728942 87.839113 86.979869 86.152022 85.35812 84.594678 83.854659 83.130198 82.413794 81.698759 80.979967 80.255945 79.532548 78.822846 78.123845 77.426505 76.720827 75.999823 75.26973 74.567171 73.875258 73.171918 72.433224 71.642529 70.883676 70 69.444444 69.890816 70.012159 70.356269 70.690464 70.969306 71.183076 71.327139 71.400204 71.403458 71.339236 71.210111 71.018481 70.766496 70.456101 70.089113 69.667275 69.192303 68.66591 68.089825 67.465801 66.79562 66.081091 65.324044 64.526318 63.689748 62.81615 61.907301 60.96494 59.990773 58.986524 57.954049 56.895538 55.813945 54.713813 53.60283 52.494421 51.410249 50.374717 49.381096 48.444486 47.520035 46.748028 45.96897 45 44.444444 43.888889 44.337059 44.354184 44.451219 44.412392 44.292492 44.166441 44.091135 43.98353 43.831872 43.65569 43.481798 43.335176 43.226685 43.127501 43.027464 42.935412 42.869001 42.845841 42.873906 42.943168 43.041438 43.157463 43.282439 43.409185 43.531477 43.643529 43.739967 43.816061 43.86794 43.892651 43.888096 43.852902 43.786291 43.687952 43.55795 43.396654 43.204679 42.982842 42.73212 42.453613 42.148502 41.818006 41.463342 41.085679 40.68611 40.26562 39.825076 39.365217 38.886659 38.389904 37.87534 37.34324 36.793745 36.226851 35.642394 35.040064 34.419456 33.780064 33.120866 32.439028 31.728048 30.978018 30.178738 29.339509 28.612341 27.888568 1e+30 1e+30 1e+30 1e+30 1e+30 1e+30 1e+30 1e+30 1e+30 1e+30 1e+30
1e+30 1e+30 106.3878 106.32944 106.22251 106.07089 105.87623 105.63906 105.3593 105.03657 104.67033 104.26 103.80505 103.30499 102.75951 102.16847 101.53205 100.85081 100.12587 99.35905 98.550478 97.702962 96.820995 95.910323 94.977846 94.031359 93.079172 92.129678 91.190843 90.269459 89.3702 88.495181 87.645098 86.820524 86.021622 85.246109 84.489682 83.747158 83.013363 82.283771 81.555225 80.826928 80.101196 79.381799 78.667661 77.954501 77.23752 76.514271 75.788096 75.067909 74.348069 73.61707 72.862832 72.079091 71.273841 70.402864 69.444444 68.888889 68.333333 69.009847 69.50069 69.886762 70.190231 70.409537 70.545846 70.603664 70.588115 70.503654 70.353868 70.141666 69.86953 69.539695 69.154261 68.71525 68.224648 67.684416 67.09651 66.462882 65.785483 65.066268 64.307195 63.510221 62.677303 61.810409 60.91153 59.982721 59.02617 58.044338 57.040186 56.017538 54.981667 53.940102 52.903426 51.884972 50.896998 49.943041 49.027204 48.144733 47.317582 46.497714 45.646142 44.850502 43.888889 43.333333 42.777778 43.136891 43.014414 42.758015 42.527038 42.538745 42.431869 42.228115 41.982632 41.74465 41.563936 41.482686 41.390999 41.271123 41.146695 41.053327 41.027468 41.089858 41.208222 41.361813 41.534011 41.714871 41.896787 42.073295 42.23785 42.384008 42.506103 42.599687 42.661592 42.689757 42.682988 42.640748 42.562997 42.450077 42.302639 42.121592 41.90806 41.66335 41.388907 41.086277 40.757053 40.402826 40.025129 39.625397 39.204927 38.764861 38.306181 37.829711 37.336129 36.825976 36.299661 35.757454 35.199481 34.62571 34.035932 33.429738 32.806407 32.164618 31.501947 30.814595 30.098513 29.353097 28.590063 27.84371 27.082503 26.27566 1e+30 1e+30 1e+30 1e+30 1e+30 1e+30 1e+30 1e+30 1e+30 1e+30
1e+30 1e+30 106.44746 106.39306 106.2891 106.13923 105.94554 105.70902 105.43001 105.1085 104.74429 104.33712 103.88679 103.39314 102.85619 102.27618 101.65362 100.98946 100.28511 99.542636 98.762941 97.948177 97.102452 96.230782 95.338998 94.433544 93.521194 92.608698 91.702377 90.807634 89.928498 89.067464 88.225878 87.404364 86.602733 85.819452 85.051786 84.296327 83.549576 82.80845 82.07077 81.335681 80.603661 79.875504 79.150374 78.426017 77.699954 76.97085 76.239429 75.507116 74.770685 74.023834 73.259891 72.474573 71.666661 70.828969 69.978213 69.202336 68.333333 67.777778 68.34746 68.82052 69.21672 69.511204 69.707045 69.814878 69.84398 69.800909 69.69025 69.515442 69.279333 68.984479 68.633278 68.228035 67.77099 67.264334 66.710221 66.110771 65.468084 64.784242 64.061322 63.301404 62.506586 61.679006 60.820873 59.934517 59.022465 58.087568 57.13318 56.163424 55.183507 54.200043 53.221124 52.255645 51.311386 50.392759 49.502311 48.6397 47.805709 46.983702 46.160896 45.347423 44.509597 43.728577 42.777778 42.222222 41.666667 41.111111 40.555556 41.017877 40.889891 40.577402 40.211503 39.857994 39.600202 39.6569 39.590572 39.426612 39.233292 39.075814 39.026461 39.156303 39.345749 39.572672 39.812389 40.058111 40.302986 40.541523 40.766223 40.968864 41.142382 41.281681 41.383548 41.446207 41.468868 41.4514 41.394148 41.297816 41.163397 40.992142 40.785528 40.545237 40.273112 39.971121 39.641292 39.285651 38.906147 38.504598 38.082639 37.641699 37.183 36.707568 36.21625 35.709738 35.188581 34.653189 34.103834 33.540625 32.963489 32.372112 31.765843 31.143549 30.503482 29.843433 29.161584 28.458196 27.73727 27.002728 26.23371 25.384466 24.336535 23.749589 1e+30 1e+30 1e+30 1e+30 1e+30 1e+30 1e+30 1e+30
1e+30 1e+30 106.51152 106.45624 106.35159 106.20139 106.00767 105.77146 105.49323 105.17312 104.81119 104.40742 103.96184 103.47459 102.94594 102.37642 101.76681 101.11829 100.43246 99.711486 98.956913 98.170231 97.355167 96.51611 95.658035 94.786337 93.906616 93.024403 92.144862 91.272467 90.410748 89.562192 88.728354 87.909998 87.107098 86.318724 85.543155 84.778174 84.021435 83.270808 82.524682 81.78214 81.042861 80.30661 79.572565 78.839299 78.105265 77.369341 76.631008 75.889576 75.142612 74.386269 73.616506 72.830359 72.026453 71.204667 70.373096 69.545553 68.680662 67.777778 67.222222 67.764241 68.279716 68.647536 68.893116 69.042269 69.109885 69.103946 69.029189 68.889038 68.686428 68.424101 68.104704 67.730799 67.304873 66.829343 66.306554 65.738795 65.128308 64.477296 63.787948 63.062454 62.303035 61.51197 60.691636 59.844562 58.973498 58.081509 57.172101 56.249369 55.318155 54.384101 53.45351 52.532796 51.627503 50.741386 49.876454 49.032727 48.208395 47.396698 46.591995 45.79397 44.997794 44.218113 43.432509 42.759889 42.109903 41.419681 40.555556 40 39.444444 38.888889 38.333333 37.777778 37.222222 37.858668 37.792888 37.515142 37.185665 36.889976 36.74539 37.064158 37.348774 37.675745 37.991607 38.310772 38.625741 38.93538 39.229939 39.497485 39.728716 39.917957 40.062401 40.161022 40.21377 40.221136 40.18397 40.103407 39.98083 39.817868 39.616391 39.378498 39.106491 38.802824 38.470038 38.110673 37.727168 37.321776 36.8965 36.453065 35.992927 35.517295 35.027171 34.523385 34.006621 33.477438 32.936265 32.383389 31.818922 31.242737 30.654402 30.053094 29.43759 28.806432 28.158373 27.492898 26.810041 26.10766 25.375529 24.600117 23.786286 23.079048 22.364957 1e+30 1e+30 1e+30 1e+30 1e+30 1e+30 1e+30
1e+30 1e+30 106.58086 106.51879 106.40963 106.25706 106.0623 105.82594 105.5483 105.22958 104.86994 104.46952 104.02857 103.54742 103.02657 102.46674 101.86892 101.23442 100.56496 99.862705 99.129716 98.366891 97.577589 96.765673 95.935429 95.091435 94.238397 93.380939 92.523384 91.669539 90.822529 89.984712 89.1577 88.342403 87.53905 86.747199 85.965836 85.193563 84.428828 83.670158 82.916336 82.166483 81.419993 80.676289 79.93456 79.193728 78.452618 77.710154 76.965355 76.216983 75.463049 74.700934 73.927936 73.141909 72.34166 71.527188 70.700568 69.862505 69.001657 68.117721 67.222222 66.666667 67.424921 67.842035 68.112352 68.288487 68.387027 68.413797 68.371747 68.26345 68.091634 67.859154 67.568888 67.223663 66.826216 66.379185 65.885111 65.346442 64.765548 64.144745 63.486314 62.792534 62.065717 61.308247 60.522622 59.711504 58.87777 58.024584 57.155463 56.274349 55.385649 54.494196 53.605064 52.723175 51.852754 50.99685 50.157155 49.333875 48.525711 47.729634 46.942944 46.164767 45.395068 44.638792 43.898717 43.200347 42.518856 41.826903 41.111819 40.482618 39.881242 39.28536 38.677678 38.02448 37.222222 36.666667 36.111111 35.555556 35 34.444444 33.888889 34.900681 35.206822 35.690433 36.070292 36.472535 36.860704 37.253149 37.631379 37.974831 38.270917 38.514118 38.703151 38.838561 38.921498 38.953296 38.935399 38.869407 38.757112 38.600536 38.401964 38.163955 37.889325 37.581102 37.242438 36.876498 36.486308 36.074631 35.643871 35.196053 34.732842 34.255598 33.765444 33.263321 32.750038 32.2263 31.692714 31.14978 30.59785 30.037068 29.46729 28.888018 28.298385 27.697252 27.083414 26.455758 25.813015 25.152777 24.470714 23.764163 23.040858 22.326392 21.564973 20.634674 20.119552 1e+30 1e+30 1e+30 1e+30 1e+30
1e+30 106.73394 106.66226 106.57845 106.4611 106.30491 106.10853 105.8717 105.59446 105.27697 104.91944 104.52216 104.0855 103.60995 103.09618 102.54506 101.9577 101.33551 100.68026 99.994046 99.279328 98.536537 97.768678 96.979164 96.171732 95.350324 94.518963 93.68159 92.841907 92.003221 91.168326 90.339436 89.518165 88.705543 87.902036 87.107587 86.321694 85.543535 84.772128 84.006469 83.245653 82.488915 81.735601 80.985059 80.236521 79.489082 78.741744 77.993479 77.243199 76.489604 75.73103 74.965517 74.191066 73.405957 72.608937 71.799261 70.976452 70.138788 69.281719 68.404608 67.51719 66.666667 66.846135 67.119451 67.36248 67.549447 67.673447 67.730268 67.718585 67.639561 67.495739 67.290201 67.026145 66.706704 66.334885 65.913557 65.445447 64.933155 64.379168 63.785887 63.155662 62.490826 61.793749 61.066879 60.31279 59.534223 58.734126 57.915691 57.082384 56.237964 55.38646 54.532092 53.679093 52.83144 51.99252 51.164844 50.3499 49.548101 48.758848 47.980776 47.212619 46.453957 45.705405 44.969423 44.249068 43.549834 42.864009 42.182482 41.506605 40.862382 40.237565 39.618488 38.992054 38.343959 37.668635 37.057928 36.467017 35.878525 35.278713 34.641346 33.888889 33.333333 32.777778 33.705064 34.024785 34.549234 34.994435 35.490614 35.975515 36.40963 36.777882 37.077768 37.311974 37.483902 37.596354 37.651615 37.651723 37.598704 37.494724 37.342181 37.143779 36.902567 36.621941 36.305596 35.957436 35.581406 35.181271 34.760402 34.321643 33.867297 33.39919 32.918772 32.427229 31.92557 31.4147 30.895466 30.36867 29.835065 29.295309 28.749893 28.199035 27.642576 27.079909 26.51 25.931523 25.343001 24.742814 24.129043 23.499725 22.85448 22.196544 21.530131 20.841573 20.129424 19.518967 18.904007 1e+30 1e+30 1e+30 1e+30
1e+30 106.75563 106.70578 106.62164 106.5014 106.34294 106.14522 105.90787 105.63087 105.31439 104.95871 104.56418 104.13131 103.66071 103.15315 102.60961 102.0313 101.41967 100.7765 100.10387 99.404187 98.678007 97.92775 97.156486 96.367515 95.564288 94.750303 93.928984 93.103566 92.276975 91.451744 90.629951 89.813199 89.002609 88.198843 87.402141 86.612379 85.82916 85.051916 84.280003 83.512775 82.749617 81.989938 81.233121 80.478471 79.7252 78.97243 78.219209 77.464489 76.70706 75.945512 75.178276 74.403748 73.620427 72.826982 72.022157 71.204439 70.371261 69.51808 68.637533 67.710644 66.666667 66.111111 66.36384 66.60535 66.810341 66.964354 67.05284 67.070601 67.018464 66.899617 66.717809 66.476742 66.179928 65.830669 65.432068 64.987036 64.498312 63.968477 63.399992 62.795231 62.156544 61.486312 60.787008 60.061242 59.3118 58.541665 57.754033 56.952307 56.140088 55.321118 54.499188 53.677976 52.860838 52.050598 51.249375 50.458496 49.6785 48.909242 48.150142 47.400624 46.660534 45.930348 45.211308 44.504924 43.812362 43.131079 42.458275 41.795253 41.148224 40.513512 39.884101 39.252831 38.614816 37.973804 37.353075 36.744107 36.13618 35.517978 34.875643 34.198092 33.53519 32.777778 32.222222 31.666667 32.601891 32.975489 33.640888 34.275345 34.818029 35.263149 35.618696 35.895939 36.102541 36.242942 36.320133 36.336556 36.294531 36.196501 36.045175 35.843657 35.595503 35.304747 34.97587 34.613713 34.223248 33.809211 33.375725 32.926103 32.462868 31.987907 31.502656 31.008268 30.505755 29.996076 29.480204 28.959151 28.43397 27.905708 27.375307 26.843461 26.310418 25.775805 25.238558 24.697069 24.149483 23.593956 23.028813 22.452848 21.865959 21.269493 20.664854 20.05075 19.432889 18.833078 18.201762 17.435815 17.025884 1e+30 1e+30
1e+30 106.77717 106.7336 106.65092 106.52992 106.37024 106.17153 105.93368 105.65677 105.34102 104.9868 104.59456 104.16486 103.69842 103.19609 102.65894 102.0882 101.48537 100.85221 100.19074 99.503257 98.790505 98.054385 97.297676 96.523334 95.734427 94.93405 94.125236 93.310862 92.493566 91.675673 90.859153 90.045589 89.236177 88.431734 87.632726 86.839318 86.051433 85.26882 84.491115 83.7179 82.94872 82.183093 81.420487 80.6603 79.901848 79.144363 78.386991 77.628779 76.868652 76.105407 75.337739 74.564297 73.783741 72.99474 72.195873 71.385381 70.560757 69.718289 68.852627 67.956078 67.023781 66.111111 65.555556 65.821027 66.058848 66.257841 66.383529 66.430151 66.40188 66.30433 66.142535 65.920862 65.643227 65.313231 64.934206 64.50924 64.041193 63.532718 62.986289 62.404261 61.788939 61.142663 60.467883 59.767215 59.043468 58.299658 57.538985 56.764813 55.980636 55.190012 54.396466 53.603326 52.813553 52.029577 51.253203 50.485586 49.727273 48.978321 48.238484 47.507472 46.785183 46.071829 45.367942 44.674104 43.990522 43.316321 42.650653 41.994004 41.347653 40.709849 40.076988 39.445414 38.813307 38.182918 37.560539 36.94402 36.327669 35.70451 35.06768 34.414359 33.753025 33.069554 32.409533 31.666667 31.111111 30.555556 31.718664 32.568753 33.229557 33.74616 34.14793 34.46189 34.699743 34.865855 34.963054 34.993801 34.960502 34.865705 34.712324 34.503813 34.244241 33.938318 33.591435 33.209625 32.79928 32.366517 31.916424 31.452772 30.978162 30.494352 30.002589 29.503866 28.999098 28.489239 27.975363 27.458703 26.940663 26.42278 25.906613 25.393528 24.884359 24.379029 23.876296 23.373943 22.869466 22.360624 21.845683 21.323565 20.794111 20.258127 19.716927 19.172033 18.627309 18.087551 17.542001 16.989648 16.529063 16.028581 15.805684
1e+30 106.79227 106.75053 106.66854 106.54712 106.38657 106.18699 105.94855 105.67149 105.35614 105.00292 104.61238 104.18515 103.72201 103.22387 102.69184 102.12719 101.53141 100.90623 100.25361 99.575738 98.87348 98.148338 97.402855 96.639714 95.861684 95.071553 94.272054 93.465797 92.655197 91.842424 91.02936 90.217574 89.408318 88.602532 87.800864 87.003702 86.211217 85.423406 84.64014 83.861195 83.086277 82.315028 81.547023 80.781764 80.018674 79.257093 78.496276 77.735388 76.973497 76.209576 75.442522 74.671185 73.894382 73.110885 72.319347 71.518173 70.705358 69.878436 69.034753 68.172658 67.295748 66.421773 65.555556 65 65.282325 65.561388 65.730479 65.802048 65.792195 65.710975 65.564805 65.358519 65.096318 64.782057 64.419287 64.011259 63.56094 63.071025 62.543955 61.981991 61.387311 60.762143 60.108863 59.430065 58.728585 58.007482 57.269997 56.519492 55.759418 54.993258 54.224424 53.456079 52.690938 51.931133 51.178178 50.433006 49.696058 48.967395 48.246849 47.534178 46.829202 46.131878 45.442289 44.76053 44.086543 43.420007 42.76072 42.108901 41.464736 40.827186 40.19424 39.563858 38.935056 38.308664 37.686515 37.067856 36.449719 35.828049 35.19904 34.560909 33.914766 33.258952 32.600602 31.924395 31.272283 30.555556 30 30.950752 31.689287 32.250824 32.673567 33.013864 33.279633 33.469401 33.584679 33.62766 33.600679 33.506148 33.347009 33.127015 32.850734 32.523548 32.151824 31.743106 31.305892 30.848465 30.377197 29.896179 29.407756 28.913228 28.413391 27.908894 27.400436 26.888896 26.375407 25.861419 25.348738 24.839517 24.336164 23.84106 23.356024 22.881515 22.415903 21.955649 21.497015 21.037116 20.573989 20.106433 19.634172 19.157924 18.679208 18.200257 17.724491 17.255956 16.797724 16.361922 15.982382 15.662649 15.496003
1e+30 106.79912 106.7577 106.67558 106.55347 106.39191 106.19131 105.95205 105.6745 105.35911 105.00637 104.61689 104.19136 103.73059 103.23556 102.70736 102.14729 101.55684 100.93769 100.29173 99.62105 98.926563 98.209492 97.472193 96.717134 95.946857 95.163915 94.370816 93.56997 92.763626 91.953835 91.142415 90.330927 89.520671 88.712687 87.907768 87.106483 86.309202 85.516127 84.727324 83.942743 83.162238 82.385581 81.612461 80.842488 80.075192 79.310024 78.546354 77.783469 77.020576 76.256804 75.491225 74.722868 73.950724 73.173737 72.390763 71.600521 70.801563 69.992379 69.171809 68.340004 67.500159 66.65966 65.824049 65 64.444444 64.911406 65.112008 65.192678 65.191321 65.120062 64.984652 64.789453 64.538674 64.2364 63.886398 63.492076 63.056502 62.58239 62.072089 61.527655 60.951023 60.344205 59.709439 59.049277 58.366603 57.664576 56.946529 56.215872 55.476066 54.730625 53.98303 53.236478 52.493566 51.756159 51.025435 50.30202 49.586122 48.877661 48.176385 47.481966 46.794078 46.112432 45.436781 44.766895 44.102554 43.443618 42.790219 42.14278 41.501573 40.866012 40.234729 39.606208 38.979561 38.355013 37.733543 37.115405 36.499198 35.882436 35.262601 34.638083 34.008321 33.37252 32.730716 32.078583 31.418489 30.726289 30 29.444444 30.229669 30.800409 31.18902 31.54889 31.845094 32.057802 32.189508 32.242678 32.219712 32.122384 31.953386 31.716784 31.417668 31.061948 30.656806 30.211588 29.738117 29.248619 28.751142 28.24957 27.74528 27.238549 26.729367 26.217821 25.704275 25.189446 24.674476 24.161005 23.651257 23.148126 22.655163 22.176332 21.715251 21.273642 20.849265 20.435505 20.026283 19.617993 19.208594 18.79659 18.381515 17.964203 17.546452 17.13076 16.720646 16.321 15.938856 15.586974 15.28585 15.055125 14.932021
1e+30 106.79739 106.75558 106.6726 106.54926 106.38629 106.18431 105.94383 105.66536 105.34942 104.99657 104.60745 104.1828 103.72345 103.2304 102.70475 102.14779 101.56098 100.94596 100.30457 99.638799 98.949531 98.237826 97.50589 96.756033 95.990623 95.212041 94.42263 93.624652 92.820236 92.011349 91.199761 90.387034 89.57451 88.763316 87.954365 87.148377 86.34589 85.547282 84.752784 83.962503 83.176433 82.394465 81.616403 80.841963 80.070784 79.302427 78.536376 77.772041 77.008757 76.245797 75.482387 74.717728 73.950998 73.181345 72.407883 71.629667 70.845697 70.055008 69.256966 68.451801 67.641194 66.828248 66.01624 65.212012 64.444444 64.464338 64.550551 64.602555 64.597629 64.530595 64.401528 64.213091 63.96948 63.675218 63.334336 62.950385 62.526554 62.06559 61.569679 61.040501 60.479549 59.888469 59.26928 58.624482 57.957064 57.270396 56.568007 55.853382 55.129996 54.401484 53.671647 52.94403 52.221241 51.504822 50.795483 50.093391 49.398392 48.710148 48.028224 47.352132 46.681358 46.015368 45.353612 44.69554 44.040702 43.388953 42.740735 42.097126 41.459188 40.826705 40.198304 39.572224 38.947187 38.323185 37.701832 37.085306 36.473189 35.863502 35.254076 34.643332 34.030329 33.414069 32.792685 32.161747 31.517318 30.850831 30.159608 29.444444 28.888889 29.438433 29.639202 30.054581 30.402254 30.63626 30.782478 30.84371 30.823046 30.72004 30.536647 30.277625 29.948804 29.556204 29.106965 28.611988 28.088616 27.557726 27.029055 26.504603 25.983337 25.46367 24.944372 24.42479 23.904857 23.385069 22.866504 22.350912 21.840883 21.340077 20.853479 20.387443 19.94898 19.543148 19.167463 18.807176 18.451886 18.098147 17.744869 17.389764 17.031908 16.672591 16.314162 15.959064 15.610581 15.273682 14.955847 14.66848 14.427181 14.249389 14.155027
1e+30 106.78748 106.74463 106.65998 106.53468 106.36969 106.16579 105.9236 105.64369 105.32663 104.97303 104.58355 104.15893 103.70003 103.20783 102.68344 102.12813 101.54332 100.93062 100.29178 99.628752 98.942284 98.233389 97.504165 96.756803 95.99355 95.216663 94.428373 93.630837 92.826103 92.016077 91.202502 90.386946 89.570792 88.755241 87.941316 87.129868 86.321585 85.516997 84.716488 83.920304 83.128562 82.34127 81.558331 80.779568 80.004721 79.233461 78.465388 77.700027 76.936832 76.175199 75.414494 74.654081 73.893328 73.131601 72.368285 71.602775 70.834424 70.06251 69.286398 68.505812 67.720961 66.931929 66.13636 65.322846 64.444444 63.888889 63.960599 64.006497 64.003149 63.940248 63.81478 63.628773 63.387616 63.097113 62.761545 62.384504 61.969381 61.519081 61.035564 60.519816 59.972548 59.394818 58.788323 58.15551 57.49959 56.82437 56.133789 55.431375 54.720449 54.004767 53.288875 52.577351 51.872934 51.176598 50.488283 49.807471 49.133503 48.465698 47.803388 47.145899 46.492524 45.842484 45.1949 44.548812 43.903332 43.258035 42.613626 41.972495 41.337767 40.709454 40.085405 39.462734 38.838989 38.213593 37.589863 36.975069 36.368727 35.767966 35.170186 34.5738 33.97818 33.382941 32.785997 32.179721 31.559 30.920256 30.262577 29.586306 28.888889 28.333333 27.777778 28.53299 28.980011 29.210326 29.368803 29.435253 29.417368 29.306458 29.103295 28.815095 28.449329 28.011222 27.50524 26.941229 26.345182 25.761592 25.198482 24.651156 24.113619 23.581457 23.051966 22.523731 21.996274 21.469844 20.945375 20.424573 19.910174 19.406397 18.919668 18.459528 18.039095 17.672424 17.361426 17.066269 16.769522 16.472541 16.178782 15.882568 15.581652 15.278973 14.978403 14.681584 14.390723 14.110046 13.84609 13.60863 13.410658 13.266732 13.190702
1e+30 106.77041 106.72548 106.63801 106.50978 106.34202 106.13556 105.89108 105.60917 105.2904 104.93538 104.54478 104.11934 103.65991 103.16745 102.64306 102.08796 101.50356 100.8914 100.25319 99.590815 98.904828 98.196299 97.467253 96.719803 95.956115 95.178373 94.388735 93.589294 92.782044 91.968859 91.151465 90.331441 89.510209 88.689041 87.869059 87.051239 86.236407 85.425239 84.618259 83.815838 83.018205 82.225466 81.437616 80.654567 79.876161 79.102175 78.332324 77.566248 76.803509 76.043592 75.285977 74.530186 73.775779 73.022324 72.269479 71.517032 70.76472 70.011906 69.257673 68.501128 67.74161 66.978499 66.210391 65.434003 64.647256 63.888889 63.333333 63.396546 63.405097 63.349321 63.22533 63.036196 62.791468 62.500196 62.166082 61.792282 61.382669 60.940775 60.468363 59.965011 59.430025 58.863577 58.266938 57.642499 56.993867 56.325767 55.643097 54.949226 54.246679 53.53898 52.832202 52.133827 51.446637 50.770289 50.103355 49.444316 48.79188 48.144994 47.502765 46.864365 46.228935 45.595476 44.962759 44.329259 43.693261 43.053397 42.410095 41.768021 41.136224 40.513967 39.896872 39.279749 38.65753 38.027066 37.393361 36.780525 36.182576 35.593069 35.008224 34.426516 33.848344 33.27588 32.710649 32.133704 31.539764 30.929116 30.304034 29.668566 29.031588 28.421866 27.777778 27.222222 27.680849 27.762904 27.954375 28.018547 28.012175 27.892244 27.661289 27.33525 26.925796 26.435851 25.860988 25.199234 24.483271 23.837102 23.242953 22.677733 22.127459 21.584696 21.045653 20.508504 19.972552 19.437854 18.905105 18.375725 17.852151 17.33848 16.841736 16.374323 15.95833 15.630162 15.425721 15.214896 14.976755 14.73441 14.507219 14.273417 14.027657 13.778856 13.535613 13.295948 13.05951 12.829496 12.610567 12.410884 12.242454 12.119179 12.053734
1e+30 106.74827 106.69888 106.60678 106.47443 106.30303 106.09335 105.84599 105.5615 105.24041 104.88331 104.49084 104.06374 103.60282 103.10901 102.58337 102.02711 101.44156 100.82822 100.18877 99.525023 98.837265 98.126733 97.395406 96.645359 95.87872 95.097639 94.304242 93.500593 92.688662 91.870303 91.047237 90.221056 89.393219 88.565063 87.737809 86.912554 86.090269 85.271774 84.457729 83.648622 82.844777 82.046376 81.253486 80.466093 79.684129 78.907482 78.135988 77.369415 76.607414 75.849505 75.09522 74.344252 73.596379 72.851294 72.108882 71.36951 70.633616 69.900555 69.168814 68.436673 67.702799 66.966692 66.228985 65.491408 64.757118 64.037392 63.333333 62.777778 62.807986 62.763235 62.637537 62.435505 62.177889 61.881871 61.545768 61.171036 60.763106 60.327565 59.866394 59.375821 58.852603 58.295787 57.706205 57.086107 56.439608 55.773322 55.09482 54.406609 53.708576 53.00247 52.297063 51.608891 50.93915 50.284113 49.63996 49.003856 48.373856 47.748612 47.127107 46.508459 45.891752 45.275869 44.659283 44.039803 43.414342 42.77914 42.131918 41.479529 40.851172 40.239124 39.633909 39.027087 38.409168 37.768196 37.100003 36.494963 35.911672 35.336971 34.76633 34.198626 33.635464 33.084009 32.569214 32.026466 31.45853 30.873185 30.276135 29.672101 29.066379 28.463986 27.849744 27.222222 26.666667 26.111111 26.573427 26.578594 26.626999 26.495114 26.219329 25.842252 25.384361 24.844778 24.200067 23.403841 22.439267 21.746563 21.14346 20.573501 20.017125 19.466752 18.919178 18.373003 17.827693 17.283223 16.739971 16.198765 15.661108 15.129718 14.60982 14.112528 13.664671 13.340686 13.37694 13.273907 13.072771 12.867119 12.730084 12.565573 12.367295 12.164964 11.98231 11.801363 11.617252 11.434226 11.253011 11.079805 10.927589 10.81272 10.750501
106.7494 106.72552 106.66499 106.56582 106.42813 106.25232 106.03883 105.78805 105.50042 105.17643 104.8166 104.42155 103.99196 103.52861 103.03239 102.50432 101.94554 101.35734 100.74117 100.09864 99.431525 98.739782 98.024915 97.288886 96.533765 95.761685 94.974806 94.175261 93.365118 92.546347 91.720795 90.890183 90.056107 89.220059 88.383437 87.547559 86.713657 85.882858 85.056144 84.234319 83.417979 82.60752 81.80317 81.005037 80.213149 79.427522 78.648161 77.875041 77.108101 76.347102 75.591448 74.840581 74.094432 73.35318 72.616358 71.88379 71.156839 70.437799 69.725792 69.01803 68.311376 67.603372 66.893345 66.184019 65.481811 64.788444 64.106081 63.435172 62.777778 62.222222 62.194537 62.062372 61.826364 61.538322 61.238957 60.899104 60.517678 60.10553 59.674086 59.22768 58.752845 58.242009 57.693598 57.108385 56.48804 55.83658 55.164092 54.486872 53.804078 53.108438 52.394763 51.673881 50.994626 50.346029 49.716085 49.097484 48.486162 47.879827 47.2771 46.677041 46.078879 45.481815 44.884815 44.28631 43.683658 43.072165 42.443512 41.785058 41.092727 40.475434 39.882931 39.297818 38.710486 38.108403 37.460495 36.666667 36.111111 35.555556 35 34.444444 33.888889 33.333333 32.777778 32.378148 31.866357 31.31613 30.749909 30.175716 29.597392 29.01752 28.437287 27.853822 27.269602 26.698886 26.111111 25.555556 25 25.327989 25.147259 24.782359 24.331761 23.824242 23.256125 22.584587 21.6645 20 19.444444 18.888889 18.333333 17.777778 17.222222 16.666667 16.111111 15.555556 15 14.444444 13.888889 13.333333 12.777778 12.222222 11.666667 11.111111 10.555556 11.342219 11.309385 11.052446 10.811341 10.863535 10.776506 10.597107 10.418653 10.316155 10.200221 10.065375 9.9296318 9.7806971 9.6214899 9.4694285 9.3478458 9.2793857
106.72328 106.68941 106.61974 106.51337 106.36993 106.18931 105.97158 105.71695 105.42571 105.09828 104.73512 104.3368 103.90394 103.43727 102.93764 102.40598 101.84338 101.25108 100.63047 99.98309 99.310569 98.612652 97.891127 97.147969 96.385283 95.605254 94.810098 94.002 93.183069 92.355292 91.52052 90.680464 89.836714 88.990776 88.144097 87.298098 86.454167 85.613623 84.777648 83.947212 83.123014 82.305488 81.494864 80.691236 79.894625 79.105112 78.32285 77.547955 76.780678 76.021071 75.268026 74.520435 73.778722 73.044355 72.315773 71.591486 70.874482 70.17302 69.484697 68.803876 68.124956 67.443253 66.756328 66.068719 65.399965 64.745163 64.099542 63.459552 62.825304 62.222222 61.666667 61.527195 61.204829 60.845127 60.571395 60.228545 59.829182 59.40103 58.969106 58.550781 58.099017 57.601792 57.060595 56.477592 55.852442 55.185357 54.489842 53.814406 53.143985 52.455509 51.722881 50.937155 50.277921 49.662606 49.065117 48.47612 47.891813 47.310433 46.731045 46.153065 45.576033 44.999472 44.422732 43.844729 43.263345 42.673822 42.063916 41.397641 40.555556 40 39.444444 38.888889 38.333333 37.777778 37.222222 36.666667 37.233201 37.083691 36.683942 36.154959 35.489633 34.543056 32.777778 32.222222 31.666667 31.111111 30.555556 30 29.444444 28.888889 28.333333 27.777778 27.222222 26.666667 26.111111 25.555556 25 24.444444 23.888889 23.333333 22.777778 22.222222 21.666667 21.111111 20.555556 20 20.930254 20.905862 20.572328 20.122389 19.620826 19.092289 18.547181 17.990093 17.422784 16.845185 16.255437 15.649011 15.016048 14.333847 13.543923 12.474708 10.555556 10 9.4444444 8.8888889 8.3333333 9.0145781 8.9605756 8.7069277 8.4779129 8.5475249 8.5038614 8.4014925 8.3264995 8.2076155 8.0451721 7.8698036 7.7186361 7.6284533
106.68103 106.63912 106.56118 106.44799 106.29892 106.11341 105.89125 105.63244 105.3372 105.00585 104.63881 104.23657 103.79972 103.32891 102.8249 102.28858 101.72094 101.12315 100.49653 99.842617 99.162496 98.456245 97.725719 96.972956 96.200149 95.409593 94.603615 93.784509 92.954459 92.115495 91.26947 90.418065 89.562833 88.705257 87.846814 86.989028 86.13348 85.281749 84.435296 83.595309 82.762589 81.937538 81.120323 80.31096 79.509325 78.715559 77.930072 77.152945 76.385084 75.627788 74.878264 74.133322 73.394385 72.668292 71.949255 71.230068 70.514584 69.833037 69.173961 68.525562 67.878892 67.225705 66.557087 65.87142 65.240963 64.629389 64.023891 63.414508 62.777778 62.222222 61.666667 61.111111 60.555556 60 59.907434 59.548549 59.102946 58.633305 58.183323 57.840257 57.423406 56.93793 56.401312 55.820327 55.189519 54.492525 53.724712 53.066009 52.43087 51.775233 51.031676 50 49.444444 48.888889 48.333333 47.777778 47.222222 46.666667 46.111111 45.555556 45 44.444444 43.888889 43.333333 42.777778 42.222222 41.666667 41.111111 40.555556 41.016004 40.882418 40.55535 40.158553 39.741302 39.34022 39.020973 38.976326 38.768252 38.401211 37.903852 37.271131 36.463094 35.466527 34.765447 34.162096 33.595271 33.043706 32.499065 31.957689 31.417818 30.878546 30.339392 29.800106 29.260582 28.720815 28.180887 27.640979 27.101397 26.562641 26.025533 25.491473 24.963012 24.445189 23.949077 23.502227 23.18291 23.243758 23.109114 22.802612 22.390851 21.916641 21.403322 20.863125 20.302162 19.722901 19.125149 18.506082 17.859332 17.172691 16.423468 15.570725 14.550847 13.335337 12.420349 11.513728 10.361433 8.3333333 7.7777778 7.2222222 6.6666667 6.1111111 6.7712266 6.7475045 6.592347 6.6511664 6.5626773 6.3659821 6.1292654 5.9107519 5.7690258
106.63069 106.57485 106.48787 106.36849 106.21434 106.02418 105.79755 105.53437 105.2348 104.89912 104.5277 104.12097 103.67945 103.20373 102.69448 102.15248 101.57865 100.97403 100.33989 99.677698 98.987912 98.271089 97.529136 96.764187 95.978579 95.174784 94.35532 93.522653 92.679097 91.826747 90.967447 90.10281 89.234292 88.363286 87.491249 86.6198 85.750767 84.886118 84.027741 83.177158 82.335277 81.502306 80.678259 79.863063 79.056043 78.257402 77.468398 76.687934 75.918002 75.165651 74.422659 73.678729 72.935531 72.223386 71.520945 70.802762 70.058341 69.408288 68.790297 68.183228 67.576927 66.960954 66.311933 65.555556 65 64.444444 63.888889 63.333333 62.777778 62.530884 62.064544 61.504918 60.855223 60 59.444444 58.888889 58.333333 57.777778 57.222222 57.13622 56.748893 56.257182 55.717838 55.143772 54.522949 53.799532 52.777778 52.222222 51.666667 51.111111 50.555556 50 49.60725 49.100141 48.553557 47.990037 47.417006 46.837115 46.251649 45.662179 45.071336 44.480186 43.888889 43.333333 42.777778 43.103766 42.985608 42.742067 42.522358 42.538687 42.425858 42.200381 41.90987 41.59136 41.276552 40.999846 40.787311 40.517361 40.153389 39.690649 39.127088 38.464253 37.74047 37.092895 36.50291 35.945564 35.405556 34.874565 34.348124 33.82379 33.300205 32.77661 32.252607 31.728026 31.202869 30.677292 30.15162 29.626394 29.102472 28.581218 28.064841 27.557058 27.064362 26.598486 26.180691 25.846042 25.625583 25.361633 25.016061 24.598841 24.1276 23.616354 23.07423 22.506403 21.915041 21.299784 20.657727 19.982888 19.265179 18.489239 17.634971 16.686428 15.66542 14.690106 13.689198 12.563213 11.262664 10.304006 9.3672798 8.1844882 6.1111111 5.5555556 5 4.4444444 5.0030603 4.9066374 4.6059245 4.2472248 3.9003489 3.6404473
106.5862 106.49171 106.39697 106.27376 106.11576 105.92142 105.69039 105.42269 105.11852 104.77814 104.40189 103.99016 103.54339 103.06209 102.54681 101.99823 101.41713 100.80445 100.16131 99.489083 98.787565 98.057866 97.301941 96.522061 95.720772 94.900817 94.065006 93.216076 92.356545 91.488599 90.614053 89.734382 88.850838 87.964611 87.077032 86.189773 85.304984 84.425239 83.553151 82.69081 81.839323 80.998192 80.167159 79.346585 78.533753 77.728754 76.937132 76.151122 75.371888 74.632616 73.906306 73.161451 72.38339 71.706619 71.046128 70.339059 69.444444 68.888889 68.333333 67.777778 67.222222 66.666667 66.111111 65.555556 65.382369 64.963574 64.467021 63.94809 63.439011 62.995759 62.491539 61.92385 61.294426 60.608501 59.988786 59.382662 58.762669 58.085606 57.222222 56.666667 56.111111 55.555556 55 54.444444 53.888889 53.333333 52.777778 52.428769 51.940186 51.407356 50.861712 50.321207 49.816249 49.281852 48.721199 48.141936 47.548469 46.94267 46.325434 45.699131 45.071639 44.444444 43.888889 44.203145 44.224849 44.348748 44.346935 44.262523 44.163716 44.1032 43.99437 43.821291 43.598043 43.344663 43.080272 42.819596 42.561993 42.267022 41.910025 41.482171 40.983392 40.42325 39.830101 39.252726 38.699916 38.166395 37.645334 37.131517 36.621487 36.113073 35.604949 35.096333 34.586802 34.076185 33.564514 33.052002 32.539066 32.02638 31.514972 31.006399 30.503028 30.008486 29.528327 29.070828 28.647161 28.268022 27.928689 27.576323 27.182667 26.742323 26.259594 25.740746 25.190992 24.613672 24.010177 23.379983 22.72059 22.027335 21.293246 20.50942 19.667171 18.764071 17.814411 16.849323 15.851834 14.795196 13.691983 12.659031 11.612838 10.440483 9.0738134 7.9944501 6.7218942 4.4444444 3.8888889 3.3333333 2.7777778 2.2222222 1.6666667 1.1111111
1e+30 106.35881 106.28454 106.16382 106.00353 105.80536 105.5699 105.29749 104.98843 104.64302 104.26156 103.84439 103.39187 102.90441 102.38245 101.8265 101.2372 100.61532 99.961829 99.277727 98.562419 97.81746 97.04486 96.247065 95.426921 94.587563 93.732248 92.864132 91.986042 91.1003 90.208655 89.312331 88.412206 87.509066 86.603915 85.698349 84.794899 83.897133 83.008966 82.133507 81.272684 80.423419 79.584815 78.761368 77.942391 77.125245 76.3386 75.545625 74.723627 74.0246 73.346429 72.614883 71.666667 71.111111 70.555556 70 69.444444 69.303254 68.90172 68.41438 67.895618 67.366836 66.842728 66.347242 65.947765 65.497055 65.003479 64.488574 63.969924 63.457736 62.917778 62.339704 61.724527 61.084192 60.453284 59.824036 59.182555 58.512448 57.808169 57.186028 56.59258 56.010997 55.435452 54.864054 54.297101 53.73776 53.19651 52.707975 52.190152 51.648112 51.094112 50.538087 49.986044 49.420791 48.838006 48.238207 47.622067 46.989095 46.337339 45.665945 45 44.444444 44.937938 45.287996 45.489199 45.638638 45.708737 45.713417 45.681373 45.630421 45.540992 45.405186 45.227864 45.019208 44.78948 44.544937 44.282665 43.987016 43.644942 43.250543 42.804833 42.316288 41.802117 41.284154 40.772365 40.268355 39.770438 39.27629 38.78391 38.291824 37.799038 37.304929 36.809155 36.311602 35.812341 35.311628 34.809921 34.307927 33.806678 33.30765 32.812935 32.325442 31.849071 31.388618 30.948799 30.531182 30.127951 29.717027 29.28148 28.813902 28.313257 27.781263 27.220138 26.631519 26.015995 25.372922 24.700347 23.995002 23.252514 22.468107 21.638263 20.763541 19.851089 18.911011 17.941036 16.936958 15.909141 14.885076 13.840685 12.739927 11.582695 10.466562 9.2785578 7.9515061 7.1070091 6.4456588 5.8767371 5.3765177 4.9542408 4.6611902
1e+30 106.25018 106.16857 106.04346 105.87917 105.67659 105.43635 105.15894 104.84471 104.49394 104.10693 103.68396 103.2253 102.73124 102.20207 101.63813 101.03985 100.4078 99.742785 99.044824 98.313729 97.551048 96.758859 95.939837 95.097231 94.234751 93.356327 92.465763 91.566372 90.660684 89.75032 88.836075 87.918195 86.996746 86.072037 85.145242 84.219193 83.299154 82.391503 81.500753 80.633465 79.776734 78.925826 78.110031 77.287268 76.428955 75.684147 74.906518 73.888889 73.333333 72.777778 72.222222 71.666667 71.561211 71.185585 70.731918 70.278635 69.916556 69.49368 69.019441 68.515581 67.998528 67.481692 66.97893 66.501325 66.010162 65.497703 64.968995 64.430455 63.88359 63.317981 62.728072 62.114673 61.484835 60.850334 60.211657 59.564743 58.906562 58.244261 57.609474 56.99504 56.3932 55.799439 55.211757 54.630088 54.056356 53.49476 52.94904 52.396588 51.832723 51.260139 50.682365 50.100256 49.508147 48.902331 48.280921 47.642183 46.983546 46.297647 45.555556 45 45.556502 46.052017 46.443409 46.725914 46.927762 47.054891 47.118851 47.134789 47.112354 47.049592 46.945385 46.802867 46.627728 46.425586 46.199475 45.947715 45.663851 45.341714 44.978493 44.575734 44.139651 43.680655 43.210469 42.736727 42.262764 41.789296 41.315876 40.841726 40.366104 39.888441 39.408358 38.925657 38.440308 37.952432 37.46231 36.970397 36.477359 35.984117 35.491917 35.002391 34.517595 34.039929 33.571776 33.114574 32.667061 32.223079 31.771428 31.30193 30.808339 30.287994 29.740399 29.165942 28.565045 27.937694 27.283198 26.600113 25.886305 25.139212 24.356438 23.536729 22.68115 21.793528 20.878515 19.937768 18.972875 17.989807 16.996469 15.98701 14.952954 13.9007 12.857014 11.811149 10.792307 9.9656622 9.2914212 8.7324617 8.2758266 7.9311712 7.7317654
1e+30 106.17315 106.04612 105.91227 105.7431 105.53549 105.28998 105.00721 104.68751 104.33112 103.93828 103.50921 103.04413 102.54317 102.00646 101.4341 100.82626 100.18324 99.505528 98.792097 98.043195 97.260221 96.445266 95.601251 94.731963 93.841932 92.936108 92.01932 91.095659 90.167981 89.237693 88.304872 87.368758 86.428265 85.482389 84.531089 83.576741 82.627663 81.695709 80.782864 79.921902 79.062193 78.169363 77.403401 76.605051 75.555556 75 74.444444 73.888889 73.791141 73.427456 72.987673 72.5524 72.220593 71.831974 71.401053 70.958968 70.528825 70.074954 69.591692 69.085958 68.566965 68.043397 67.52229 67.005489 66.481537 65.944958 65.39583 64.835733 64.264461 63.678498 63.0756 62.45653 61.825043 61.186186 60.541873 59.892232 59.238448 58.586135 57.945844 57.31814 56.700463 56.090355 55.486309 54.887851 54.295397 53.709629 53.129297 52.546667 51.957996 51.363006 50.762357 50.155568 49.539972 48.912627 48.270919 47.611704 46.934273 46.242565 45.555556 46.043744 46.650927 47.191809 47.629273 47.964401 48.212207 48.384169 48.491526 48.545099 48.552536 48.516966 48.440556 48.326422 48.178444 48.000159 47.793533 47.55815 47.291568 46.991331 46.65667 46.28936 45.893883 45.476864 45.045459 44.605223 44.15952 43.709981 43.257177 42.801157 42.341768 41.87883 41.412218 40.941892 40.467912 39.990449 39.509793 39.026365 38.540747 38.053694 37.566165 37.07932 36.594467 36.11291 35.635589 35.162463 34.69163 34.218641 33.736922 33.24003 32.723192 32.183571 31.619787 31.031273 30.417738 29.778804 29.113805 28.42172 27.70124 26.95099 26.169918 25.357832 24.515882 23.646589 22.753027 21.837792 20.90375 19.955065 18.995907 18.027046 17.049641 16.071256 15.106544 14.167825 13.28519 12.515628 11.865611 11.329012 10.905028 10.602959 10.441581
1e+30 1e+30 105.88048 105.7664 105.59548 105.38227 105.13087 104.84239 104.51701 104.15476 103.75584 103.32048 102.84883 102.34087 101.79649 101.21554 100.59786 99.943389 99.251903 98.521654 97.753041 96.947143 96.105947 95.232589 94.331519 93.408436 92.469856 91.522259 90.571009 89.619502 88.668796 87.717739 86.764043 85.805052 84.837554 83.858847 82.867337 81.876891 80.918324 79.95032 79.146572 78.31795 77.222222 76.666667 76.111111 75.555556 75.481085 75.144099 74.75582 74.454758 74.092261 73.686862 73.272611 72.87559 72.459301 72.019694 71.565571 71.103163 70.623838 70.124401 69.607331 69.07751 68.540032 67.998675 67.454123 66.902756 66.341818 65.770504 65.18886 64.596487 63.992157 63.3752 62.746374 62.107869 61.462449 60.812088 60.158239 59.502942 58.849811 58.203297 57.56476 56.933558 56.308455 55.68835 55.072514 54.46049 53.85164 53.244262 52.634959 52.021471 51.403117 50.779765 50.150636 49.51414 48.86749 48.208202 47.528745 46.828081 46.111111 45.555556 46.892563 47.733477 48.356565 48.839063 49.211699 49.493746 49.698935 49.838406 49.921474 49.955167 49.944128 49.891858 49.801645 49.676686 49.519691 49.332379 49.115209 48.867701 48.589356 48.28057 47.943178 47.580546 47.197183 46.797884 46.386746 45.966716 45.539648 45.106588 44.66807 44.224348 43.775548 43.321756 42.863074 42.399647 41.931683 41.459466 40.983371 40.503871 40.021545 39.537076 39.051213 38.564698 38.07811 37.591599 37.104514 36.615005 36.11983 35.614719 35.095338 34.558105 34.000483 33.420868 32.818294 32.192128 31.541832 30.866822 30.166419 29.439902 28.686656 27.90642 27.099567 26.26732 25.41173 24.535365 23.640983 22.731702 21.811208 20.883341 19.951565 19.020527 18.098333 17.197147 16.332079 15.525543 14.805311 14.185118 13.671256 13.270089 12.991246 12.846851
1e+30 1e+30 105.77892 105.62736 105.44016 105.21725 104.95885 104.66449 104.33338 103.96507 103.55984 103.11806 102.63983 102.12498 101.57311 100.98371 100.35626 99.690281 98.984131 98.236151 97.446191 96.614795 95.743603 94.835817 93.896629 92.933357 91.954962 90.970659 89.987952 89.011124 88.040743 87.07332 86.104254 85.129487 84.142515 83.137354 82.094056 81.030768 80.086686 78.888889 78.333333 77.777778 77.222222 77.147699 76.817847 76.442371 76.165001 75.83458 75.474494 75.119436 74.739366 74.33397 73.914513 73.488923 73.048939 72.591695 72.119183 71.633085 71.131369 70.613094 70.079605 69.533678 68.978361 68.415951 67.847161 67.270999 66.686331 66.092589 65.489586 64.877105 64.254818 63.622757 62.981683 62.333093 61.678851 61.020708 60.360331 59.69964 59.041001 58.38671 57.7378 57.09413 56.454943 55.819312 55.18635 54.555184 53.924739 53.293473 52.659484 52.021555 51.379652 50.734052 50.083836 49.428863 48.764995 48.09522 47.396034 46.666667 46.111111 47.147794 48.153755 48.953463 49.582802 50.080247 50.471399 50.774005 51.001164 51.163192 51.268415 51.323362 51.332966 51.301123 51.231167 51.126017 50.988079 50.819083 50.620044 50.391493 50.133949 49.848419 49.536711 49.201488 48.846038 48.473812 48.087928 47.690869 47.28443 46.869826 46.447841 46.018978 45.583569 45.141863 44.694068 44.240395 43.781076 43.316379 42.846622 42.372171 41.893441 41.410874 40.9249 40.435862 39.943888 39.448719 38.949498 38.444594 37.931579 37.407468 36.86919 36.314032 35.739866 35.145159 34.528855 33.890221 33.228705 32.543847 31.835246 31.102601 30.345805 29.565088 28.761173 27.935381 27.089624 26.226295 25.348152 24.458361 23.560549 22.65876 21.75755 20.862748 19.982467 19.127577 18.311717 17.551858 16.866328 16.269306 15.771693 15.38368 15.115939 14.978651
1e+30 1e+30 1e+30 105.47396 105.27056 105.03771 104.77279 104.47333 104.13693 103.76231 103.35039 102.90207 102.41747 101.89612 101.33724 100.73994 100.10319 99.425913 98.70507 97.93895 97.126494 96.267306 95.362218 94.414087 93.428724 92.415594 91.387512 90.358433 89.339511 88.336387 87.349449 86.369866 85.389047 84.404516 83.403445 82.391034 81.276587 80 79.444444 78.888889 78.785081 78.456846 78.090524 77.824991 77.510325 77.170599 76.842165 76.494753 76.127981 75.749037 75.351599 74.934766 74.502052 74.056113 73.595207 73.118205 72.625496 72.117617 71.594302 71.055665 70.502795 69.937532 69.36191 68.777576 68.185385 67.585391 66.977366 66.361172 65.736799 65.104289 64.46375 63.815542 63.160434 62.499608 61.834504 61.166636 60.497541 59.828832 59.162145 58.498826 57.839469 57.183874 56.531309 55.880811 55.231358 54.581872 53.93111 53.277572 52.61981 51.957158 51.291099 50.623834 49.952318 49.28264 48.598154 47.941012 47.222222 46.666667 47.73118 48.679965 49.536481 50.262521 50.861495 51.349344 51.741854 52.052209 52.291109 52.467306 52.587998 52.659029 52.685093 52.670017 52.61703 52.528873 52.407821 52.255655 52.073711 51.863041 51.624681 51.359925 51.070508 50.758635 50.42685 50.077789 49.713903 49.337274 48.94954 48.551927 48.145321 47.730354 47.307489 46.877074 46.439394 45.9947 45.543235 45.085243 44.620981 44.150718 43.674724 43.193253 42.706497 42.214528 41.717208 41.214078 40.704244 40.186312 39.658402 39.11831 38.563764 37.992678 37.403309 36.794311 36.164699 35.513777 34.841067 34.146256 33.429185 32.689865 31.928543 31.145783 30.342551 29.520276 28.680855 27.82662 26.960305 26.085069 25.204535 24.322865 23.444937 22.576778 21.726065 20.902451 20.117639 19.385264 18.719851 18.13507 17.643739 17.258559 16.992106 16.855393
